775 777 781 786 786 780 784 783 784 791 793 806 798 799 800 808 820 806 827 810 815 825 835 840 841 841 853 852 855 858 861 850 850 853 863 868 863 875 875 874 850 878 875 862 867 862 860 868 868 890 891 885 883 883 883 880 877 880 874 876 871 868 874 881 880 880 882 885 890 896 902 906 906 914 945 963 965 993 1036 1049 1090 1143 1180 1209 1245 1188 1235 1222 1187 1222 1171 1217 1190 1250 1239 1213 1283 1265 1321 1321 1312 1286 1351 1363 1423 1423 1467 1516 1549 1527 1544 1531 1531 1489 1490 1450 1490 1560 1577 1618 1593 1640 1650 1731 1745 1781 1810 1827 1899 1940 1982 1895 1897 1804 1792 1716 1679 1595 1557 1557 1525 1461 1443 1439 1395 1391 1354 1325 1329 1318 1347 1442 1442 1484 1551 1549 1547 1503 1517 1472 1493 1451 1457 1466 1415 1415 1424 1442 1517 1562 1633 1669 1757 1764 1867 1847 1902 1957 1976 1976 1942 1951 1940 1902 1923 1931 1948 2019 2037 2030 2059 2101 2101 2136 2166 2174 2209 2240 2243 2270 2260 2299 2307 2285 2311 2311 2340 2351 2409 2416 2459 2460 2479 2473 2477 2496 2519 2505 2474 2474 2437 2390 2378 2395 2419 2425 2450 2481 2485 2435 2451 2405 2405 2373 2369 2348 2348 2390 2382 2397 2447 2451 2473 2469 2473 2465
773 771 771 767 774 787 782 793 793 790 791 795 798 804 800 815 814 825 823 815 816 828 823 830 837 842 844 848 842 841 841 846 851 853 867 867 885 876 878 859 856 853 853 851 861 871 869 882 882 882 888 884 883 885 883 877 869 873 865 864 870 870 880 869 877 879 884 883 884 886 890 898 905 914 959 971 964 988 1015 1067 1097 1156 1156 1178 1169 1129 1173 1183 1183 1123 1139 1144 1190 1239 1251 1251 1328 1337 1353 1356 1357 1330 1406 1389 1416 1437 1492 1516 1524 1534 1496 1511 1491 1427 1432 1440 1476 1569 1600 1693 1672 1735 1735 1772 1801 1828 1810 1865 1865 1944 1971 2000 1912 1835 1795 1795 1711 1668 1584 1579 1533 1468 1493 1449 1426 1391 1361 1325 1322 1305 1316 1364 1415 1504 1533 1502 1485 1415 1468 1448 1455 1399 1399 1400 1419 1406 1424 1475 1517 1576 1652 1723 1824 1854 1878 1878 1853 1903 1915 1942 1918 1941 1921 1888 1899 1931 1995 2019 2036 2014 2022 2035 2092 2107 2137 2159 2199 2261 2264 2299 2284 2322 2322 2331 2324 2349 2340 2384 2423 2423 2457 2462 2478 2469 2504 2504 2520 2500 2457 2436 2411 2390 2378 2392 2410 2425 2462 2476 2456 2428 2408 2405 2387 2339 2342 2340 2373 2402 2412 2438 2447 2474 2474 2482 2484 2438
763 767 768 767 772 776 783 783 789 792 792 799 799 808 813 822 822 833 833 831 822 817 823 827 831 831 831 837 854 849 843 843 851 867 866 872 873 876 854 856 847 846 852 862 864 881 885 881 876 879 884 876 880 884 883 866 869 869 869 862 869 870 873 869 875 875 879 882 884 884 895 895 896 908 942 971 978 988 1007 1048 1084 1130 1163 1117 1121 1030 1056 1083 1124 1112 1113 1178 1178 1211 1223 1291 1328 1314 1314 1305 1332 1379 1424 1413 1446 1446 1473 1503 1503 1481 1442 1458 1399 1425 1422 1440 1507 1569 1627 1739 1745 1794 1791 1791 1824 1833 1865 1923 1911 1998 2022 1985 1985 1895 1827 1756 1711 1629 1623 1582 1536 1529 1471 1447 1383 1383 1357 1354 1314 1294 1306 1364 1367 1449 1488 1502 1423 1390 1390 1410 1430 1398 1372 1391 1398 1427 1477 1522 1533 1606 1652 1775 1775 1855 1876 1859 1829 1866 1842 1882 1912 1928 1885 1881 1909 1909 1974 2023 2018 2014 2022 2035 2034 2074 2119 2144 2200 2266 2266 2276 2297 2303 2327 2352 2363 2383 2398 2410 2414 2441 2457 2457 2457 2460 2511 2529 2519 2466 2444 2417 2399 2401 2376 2404 2441 2441 2457 2460 2458 2428 2398 2405 2379 2325 2331 2369 2390 2417 2417 2435 2457 2486 2497 2437 2435 2401
755 755 781 774 797 776 790 783 801 809 809 807 813 817 820 809 814 824 839 830 837 840 839 830 825 827 831 840 840 842 838 848 860 855 849 849 846 851 845 846 863 863 873 864 884 881 877 875 875 873 875 875 877 878 880 866 868 865 863 864 865 866 870 874 875 876 878 884 882 888 889 891 899 916 945 945 973 994 1021 1062 1093 1093 1119 1137 1051 1030 1039 1088 1088 1141 1128 1196 1200 1237 1263 1294 1302 1259 1277 1306 1332 1342 1399 1405 1426 1473 1493 1500 1472 1454 1373 1367 1390 1396 1465 1465 1597 1612 1692 1739 1794 1794 1767 1774 1783 1850 1903 1962 1962 1936 1959 1931 1948 1884 1806 1806 1738 1664 1623 1547 1536 1508 1493 1417 1368 1367 1335 1340 1316 1313 1279 1294 1367 1442 1431 1431 1380 1369 1393 1410 1412 1412 1361 1435 1438 1498 1521 1611 1611 1656 1677 1784 1814 1848 1844 1828 1830 1811 1842 1906 1912 1906 1886 1870 1892 1927 1973 2001 1985 1996 2005 2017 2049 2096 2116 2116 2130 2190 2239 2276 2266 2279 2279 2312 2355 2382 2401 2408 2408 2443 2466 2462 2452 2477 2511 2520 2540 2487 2444 2407 2410 2388 2362 2383 2425 2449 2462 2467 2458 2448 2396 2386 2345 2325 2349 2349 2383 2404 2422 2469 2477 2458 2458 2411 2410 2367
768 771 787 793 785 792 788 796 808 809 808 808 804 808 806 810 812 820 820 825 827 831 844 844 844 850 848 841 840 837 838 842 855 836 836 838 841 839 851 854 874 880 884 863 881 874 871 873 872 873 875 875 865 864 865 864 861 861 861 858 863 866 870 872 872 877 878 876 882 889 889 888 893 901 935 950 969 992 992 1013 1039 1081 1087 1085 1052 1057 1063 1069 1148 1141 1229 1281 1294 1296 1280 1279 1272 1300 1300 1332 1324 1370 1389 1455 1461 1459 1484 1483 1472 1391 1347 1347 1404 1446 1549 1585 1654 1695 1721 1739 1739 1753 1711 1735 1800 1800 1880 1924 1912 1881 1918 1859 1882 1848 1861 1758 1718 1619 1619 1568 1530 1469 1446 1396 1368 1381 1357 1326 1311 1314 1283 1283 1310 1365 1367 1390 1331 1338 1330 1375 1367 1375 1362 1435 1500 1500 1590 1653 1665 1723 1740 1786 1825 1811 1823 1804 1805 1792 1792 1877 1915 1904 1886 1870 1892 1916 1940 1956 1967 1983 2002 2002 2012 2044 2064 2103 2120 2181 2146 2204 2200 2231 2264 2312 2346 2346 2354 2343 2385 2453 2463 2465 2460 2444 2486 2505 2527 2490 2490 2458 2422 2409 2362 2393 2425 2418 2431 2440 2409 2410 2364 2364 2312 2323 2354 2368 2387 2415 2443 2450 2459 2459 2435 2411 2375 2341
768 768 769 777 781 777 785 785 795 804 796 799 798 799 804 808 813 811 818 825 826 837 834 840 851 848 849 831 831 832 837 840 833 829 829 836 838 849 851 859 878 878 859 873 864 868 878 870 878 877 855 863 857 864 860 858 857 863 856 856 861 862 866 871 873 884 873 880 880 882 885 890 893 904 904 940 953 971 964 992 1004 1004 1012 1063 1052 1063 1099 1150 1164 1201 1257 1281 1300 1296 1250 1249 1252 1272 1315 1344 1369 1413 1443 1469 1446 1451 1470 1432 1432 1360 1344 1357 1404 1524 1524 1590 1625 1657 1677 1719 1664 1664 1713 1735 1791 1835 1824 1883 1846 1863 1834 1859 1796 1848 1814 1765 1713 1645 1601 1526 1486 1489 1451 1446 1421 1388 1361 1312 1312 1298 1303 1267 1310 1332 1295 1335 1312 1299 1322 1353 1350 1350 1332 1374 1488 1558 1636 1653 1657 1689 1743 1786 1819 1767 1767 1769 1768 1785 1817 1877 1910 1883 1881 1856 1891 1917 1941 1953 1953 1960 1986 1995 2019 2046 2054 2054 2069 2092 2125 2175 2158 2158 2215 2281 2301 2322 2312 2343 2318 2376 2444 2444 2448 2451 2481 2489 2507 2516 2496 2449 2426 2388 2369 2345 2385 2398 2431 2411 2411 2388 2327 2329 2334 2346 2382 2382 2402 2405 2443 2453 2441 2441 2440 2405 2338 2341
765 771 769 776 776 784 778 780 790 790 799 799 812 811 816 816 829 829 840 832 837 837 842 840 828 833 824 824 823 826 834 830 831 852 838 838 844 861 863 852 867 855 859 860 860 867 867 874 864 851 856 856 856 851 859 861 857 857 858 855 861 862 870 871 864 879 882 877 883 881 887 887 892 895 913 955 965 956 972 938 979 996 1012 1025 995 1043 1085 1125 1176 1227 1254 1254 1226 1230 1220 1204 1250 1250 1271 1304 1371 1413 1448 1426 1426 1392 1397 1357 1366 1318 1337 1372 1394 1509 1542 1578 1625 1622 1622 1588 1634 1689 1730 1778 1746 1764 1749 1798 1799 1824 1779 1779 1746 1762 1799 1765 1672 1645 1605 1564 1537 1542 1487 1456 1456 1402 1380 1331 1303 1279 1272 1274 1261 1253 1295 1310 1312 1286 1286 1308 1312 1322 1372 1419 1463 1516 1596 1632 1626 1683 1728 1728 1785 1796 1717 1769 1796 1785 1809 1831 1849 1877 1858 1862 1862 1878 1915 1925 1941 1955 1979 1985 2005 2022 2031 2047 2069 2073 2055 2090 2113 2162 2209 2254 2220 2275 2265 2284 2322 2381 2409 2409 2394 2419 2467 2489 2498 2495 2495 2464 2433 2373 2350 2329 2329 2368 2396 2394 2400 2358 2327 2313 2328 2361 2369 2416 2418 2431 2442 2433 2437 2438 2405 2377 2312 2290
758 769 778 781 779 783 783 790 791 798 790 801 812 814 812 822 824 827 827 836 824 824 812 830 823 822 820 820 834 832 825 830 839 845 845 849 861 853 862 844 851 861 868 872 859 864 867 867 872 829 852 852 854 858 859 854 851 854 852 855 860 860 866 863 871 879 876 876 876 883 882 892 895 898 898 926 948 927 935 950 977 948 965 993 995 1065 1085 1104 1126 1169 1168 1214 1162 1188 1164 1198 1219 1249 1325 1357 1380 1380 1396 1411 1363 1392 1343 1343 1302 1307 1337 1383 1423 1493 1493 1483 1539 1530 1560 1557 1633 1639 1700 1713 1746 1711 1749 1713 1700 1734 1685 1729 1687 1746 1737 1777 1712 1628 1640 1607 1595 1595 1541 1506 1432 1402 1346 1319 1302 1263 1292 1273 1240 1220 1220 1243 1294 1269 1294 1339 1312 1342 1352 1420 1463 1524 1550 1550 1558 1614 1656 1703 1728 1690 1692 1753 1830 1832 1875 1831 1874 1874 1917 1914 1885 1881 1895 1902 1923 1938 1955 1999 2013 1993 1993 2022 2041 2040 2055 2065 2113 2113 2166 2188 2201 2243 2247 2277 2298 2330 2356 2364 2407 2428 2452 2478 2465 2480 2486 2464 2413 2413 2382 2354 2329 2358 2390 2377 2377 2300 2291 2357 2364 2394 2394 2432 2428 2431 2442 2423 2437 2416 2355 2348 2281 2240
758 766 771 776 776 779 783 788 804 812 812 815 818 825 812 821 824 818 822 809 806 812 811 820 807 816 820 820 824 830 825 835 837 837 839 849 843 843 845 849 852 865 876 875 875 866 866 860 866 844 844 848 846 851 859 853 851 850 854 857 856 861 861 863 865 871 868 867 877 886 885 888 889 894 905 926 918 911 923 934 944 940 980 1020 1020 1048 1087 1100 1112 1117 1117 1136 1169 1145 1164 1204 1294 1294 1350 1368 1371 1384 1358 1349 1292 1294 1264 1293 1307 1307 1342 1342 1368 1409 1451 1448 1485 1476 1508 1554 1577 1651 1680 1716 1716 1664 1667 1647 1700 1682 1685 1635 1663 1664 1698 1743 1718 1718 1684 1670 1621 1581 1527 1485 1439 1402 1361 1319 1309 1263 1294 1294 1266 1234 1228 1245 1272 1274 1270 1401 1393 1359 1371 1437 1437 1432 1499 1502 1558 1596 1656 1600 1604 1656 1728 1797 1873 1873 1903 1904 1917 1943 1964 1937 1971 1919 1902 1902 1922 1938 1969 1962 1984 1971 1985 2003 2022 2021 2041 2048 2067 2103 2137 2148 2148 2181 2231 2270 2298 2325 2303 2303 2365 2433 2433 2449 2429 2429 2461 2490 2457 2415 2377 2354 2355 2339 2358 2377 2316 2296 2332 2353 2364 2417 2428 2443 2440 2431 2423 2393 2397 2355 2355 2316 2316 2224
761 760 765 766 779 797 788 794 792 790 798 810 818 824 828 828 828 798 803 804 804 811 807 814 800 803 816 816 816 817 824 839 842 841 840 842 850 845 844 849 854 855 856 863 863 860 858 852 857 850 851 845 842 848 848 849 848 856 854 853 853 859 864 856 861 870 872 872 870 875 883 884 886 893 900 906 906 911 926 934 929 935 977 1010 1020 1033 1063 1031 1068 1053 1086 1119 1137 1191 1191 1243 1271 1301 1350 1350 1350 1314 1292 1294 1235 1243 1273 1273 1340 1340 1376 1356 1374 1397 1426 1438 1464 1476 1534 1554 1620 1672 1694 1698 1686 1619 1615 1587 1612 1611 1636 1607 1636 1653 1653 1698 1740 1731 1684 1663 1628 1589 1524 1483 1425 1387 1368 1368 1329 1309 1245 1270 1226 1234 1264 1252 1263 1274 1386 1450 1450 1442 1383 1402 1419 1453 1462 1492 1492 1537 1558 1587 1604 1669 1669 1758 1831 1916 1924 1923 1951 1947 2027 2008 2005 1950 1901 1901 1899 1912 1937 1962 1962 1971 1971 1985 1987 2023 2035 2061 2069 2067 2084 2111 2146 2172 2225 2209 2244 2250 2278 2285 2365 2417 2417 2406 2403 2423 2449 2468 2423 2423 2396 2375 2343 2325 2327 2327 2297 2288 2341 2353 2386 2417 2432 2426 2442 2411 2392 2342 2344 2307 2322 2257 2258 2190
758 766 765 765 775 789 787 794 813 790 828 832 826 833 832 800 791 799 801 808 804 809 815 807 810 813 800 816 816 831 847 841 846 840 852 846 848 848 851 852 851 848 852 852 856 863 857 852 848 848 848 845 844 838 847 845 853 842 851 849 853 857 860 855 858 863 866 871 872 873 878 888 891 894 902 904 912 912 935 937 946 962 1003 1003 1004 1004 997 1019 1031 1070 1070 1116 1155 1177 1209 1218 1268 1236 1272 1232 1266 1269 1292 1239 1244 1223 1326 1325 1371 1370 1404 1406 1447 1434 1483 1462 1494 1494 1570 1594 1630 1672 1694 1698 1635 1585 1585 1565 1586 1582 1582 1567 1594 1648 1661 1725 1736 1702 1679 1635 1628 1565 1524 1451 1451 1422 1380 1357 1302 1285 1228 1222 1205 1228 1292 1289 1376 1376 1448 1452 1504 1442 1398 1402 1410 1479 1497 1555 1537 1586 1586 1639 1652 1675 1705 1797 1858 1882 1936 1968 1951 2002 2027 2040 2059 2020 1965 1929 1922 1903 1911 1926 1945 1953 1957 1965 1985 1985 2035 2053 2066 2067 2071 2104 2104 2155 2186 2192 2233 2216 2216 2270 2317 2384 2392 2398 2403 2397 2410 2427 2432 2410 2396 2381 2375 2342 2300 2305 2320 2323 2355 2346 2393 2420 2426 2426 2420 2420 2337 2356 2288 2259 2271 2222 2222 2209
760 755 768 770 773 776 779 785 809 819 826 832 828 828 797 798 797 802 803 823 823 844 825 826 818 823 823 823 834 852 847 866 846 874 861 869 874 861 863 850 860 855 860 858 858 868 856 856 856 845 841 845 841 841 840 843 847 843 852 856 856 857 858 861 863 863 869 864 873 876 878 883 891 876 893 897 903 912 946 948 938 954 984 1014 974 982 1000 1000 1045 1068 1090 1116 1113 1072 1118 1118 1172 1169 1196 1180 1180 1193 1222 1199 1235 1320 1326 1373 1380 1406 1404 1440 1483 1483 1528 1524 1547 1547 1576 1587 1594 1624 1631 1638 1590 1585 1549 1549 1551 1568 1548 1609 1638 1685 1688 1689 1691 1654 1643 1598 1598 1546 1538 1473 1445 1409 1380 1343 1325 1245 1213 1209 1211 1211 1325 1348 1438 1458 1516 1533 1562 1523 1507 1452 1458 1479 1559 1559 1634 1677 1669 1722 1699 1778 1726 1784 1823 1895 1957 2048 2048 2082 2061 2103 2059 2023 1965 2015 1989 1943 1941 1919 1933 1933 1960 1957 1987 1997 2040 2055 2044 2047 2054 2069 2118 2155 2170 2150 2155 2187 2221 2323 2359 2378 2378 2364 2373 2405 2427 2404 2404 2376 2387 2381 2375 2333 2291 2291 2355 2350 2376 2364 2411 2417 2422 2425 2370 2375 2296 2294 2223 2231 2198 2209 2187 2209
760 757 768 770 771 773 780 795 789 795 790 817 814 822 793 798 796 800 818 825 847 844 830 821 828 833 829 834 844 862 862 869 874 869 873 864 864 865 871 862 860 858 865 865 867 861 864 859 854 847 851 852 849 833 840 843 840 842 843 852 852 856 854 853 859 855 864 859 873 872 872 872 872 891 893 898 898 910 932 932 928 947 984 984 951 976 995 1020 1027 1062 1011 1010 1033 1072 1086 1118 1089 1123 1111 1153 1170 1169 1189 1257 1273 1330 1345 1405 1418 1438 1438 1476 1477 1525 1528 1554 1554 1583 1602 1593 1575 1577 1558 1558 1543 1550 1509 1518 1534 1537 1565 1579 1661 1685 1694 1689 1644 1586 1608 1539 1553 1522 1508 1467 1448 1410 1381 1279 1254 1199 1199 1194 1204 1297 1325 1381 1446 1446 1485 1529 1567 1552 1551 1551 1576 1566 1649 1643 1696 1677 1720 1725 1807 1778 1785 1847 1863 1941 1974 2038 2083 2118 2128 2135 2137 2101 2056 2029 1989 1956 1956 1992 1945 1938 1966 1998 2014 2014 2019 2031 2044 2048 2085 2085 2128 2142 2149 2150 2144 2187 2222 2265 2318 2337 2356 2357 2384 2376 2398 2398 2389 2362 2361 2339 2359 2314 2297 2310 2355 2384 2384 2405 2427 2439 2423 2406 2341 2341 2253 2230 2173 2180 2160 2160 2108 2136
751 756 760 768 771 774 774 776 782 787 784 797 785 785 792 794 804 810 831 831 823 836 815 821 828 833 846 844 860 859 861 862 865 852 858 846 854 845 856 856 859 871 864 876 867 872 872 860 858 854 868 864 856 856 835 840 848 844 848 850 846 849 851 853 855 855 858 861 863 867 871 874 881 885 895 898 903 922 920 927 927 938 937 949 951 972 973 980 998 1004 1036 1030 1043 1043 1088 1078 1099 1101 1131 1153 1178 1162 1229 1257 1312 1353 1353 1389 1419 1478 1470 1506 1514 1497 1511 1502 1535 1594 1602 1581 1581 1536 1537 1527 1515 1529 1476 1488 1550 1568 1604 1633 1717 1717 1707 1665 1589 1586 1547 1539 1493 1510 1465 1443 1431 1369 1369 1282 1231 1189 1183 1257 1282 1280 1285 1342 1381 1449 1485 1522 1522 1583 1626 1609 1666 1675 1715 1700 1776 1759 1797 1790 1849 1849 1855 1829 1910 1941 2009 2038 2053 2055 2088 2102 2151 2133 2133 2100 2036 2031 1997 2018 1976 2003 1955 1956 1988 1996 2019 2035 2039 2044 2074 2114 2132 2149 2130 2124 2120 2155 2214 2264 2304 2304 2305 2337 2351 2376 2382 2382 2382 2325 2319 2286 2311 2280 2284 2267 2331 2350 2400 2397 2427 2427 2445 2407 2365 2278 2219 2182 2154 2147 2129 2120 2076 2082
751 756 762 762 767 771 770 774 777 781 782 789 786 783 792 799 796 799 799 806 806 812 812 812 822 832 832 847 846 846 827 840 856 852 840 844 844 852 854 874 874 871 877 870 871 873 868 859 858 844 858 878 892 846 835 842 833 839 844 843 848 849 852 852 854 859 855 861 862 862 870 874 881 886 890 904 904 926 932 939 933 940 942 957 947 960 973 999 998 1019 1035 1071 1099 1111 1155 1137 1177 1150 1204 1194 1242 1218 1258 1258 1313 1334 1376 1389 1455 1455 1509 1464 1469 1411 1443 1475 1475 1522 1560 1521 1532 1525 1522 1492 1486 1454 1476 1524 1550 1581 1652 1675 1701 1723 1660 1615 1587 1557 1485 1478 1456 1468 1416 1416 1401 1383 1330 1282 1212 1177 1177 1237 1272 1284 1297 1377 1377 1418 1449 1503 1543 1616 1626 1702 1676 1714 1715 1777 1887 1839 1893 1860 1886 1885 1924 1899 1947 1960 1983 2011 2032 2055 2061 2061 2092 2138 2125 2110 2055 2089 2089 2077 2048 2002 1973 1964 1964 1983 1983 2016 2039 2062 2074 2083 2122 2113 2089 2098 2131 2173 2155 2214 2235 2278 2293 2331 2314 2343 2342 2364 2348 2325 2285 2285 2263 2264 2253 2302 2318 2343 2343 2379 2393 2430 2431 2372 2372 2283 2248 2200 2154 2118 2129 2085 2047 2032
744 760 761 764 767 769 769 770 775 782 788 779 779 788 792 790 796 795 799 805 802 812 818 816 818 813 823 820 827 828 841 854 842 839 849 844 849 852 856 856 857 861 865 867 869 872 872 854 849 848 874 899 889 849 830 837 833 841 844 843 847 853 847 852 849 854 854 856 859 864 872 874 882 882 885 891 913 926 942 938 958 970 978 986 970 987 987 993 1006 1022 1048 1078 1099 1097 1144 1185 1177 1227 1255 1255 1239 1264 1294 1294 1361 1364 1400 1411 1451 1481 1458 1464 1406 1406 1363 1404 1487 1467 1507 1471 1482 1477 1489 1416 1423 1456 1456 1501 1535 1583 1652 1704 1701 1673 1683 1578 1540 1521 1454 1454 1424 1417 1367 1384 1373 1364 1344 1325 1227 1190 1158 1237 1269 1269 1340 1412 1410 1449 1460 1506 1532 1633 1676 1744 1739 1778 1778 1855 1867 1910 1893 1906 1886 1929 1947 1955 1955 1971 1983 1983 1998 1996 2027 2055 2062 2104 2092 2131 2136 2108 2124 2077 2053 2077 2018 2000 1992 2014 1995 2024 2029 2017 2065 2054 2107 2086 2086 2082 2100 2125 2155 2201 2212 2212 2246 2281 2292 2312 2328 2328 2316 2326 2279 2262 2269 2264 2296 2287 2344 2329 2374 2401 2417 2416 2419 2410 2347 2278 2251 2187 2187 2129 2099 2055 2047 2011
750 760 765 766 766 767 773 772 778 769 771 779 781 790 789 793 793 804 802 837 823 846 846 841 819 840 839 845 846 846 834 836 836 845 856 854 866 856 873 860 868 861 874 869 873 865 861 838 841 844 853 884 886 832 834 836 836 836 840 842 847 847 847 852 848 849 858 857 863 863 867 869 875 880 884 888 886 907 920 938 968 970 996 1002 1007 1005 1012 999 1008 993 1012 1037 1076 1104 1124 1173 1173 1158 1203 1199 1239 1285 1285 1340 1384 1391 1408 1433 1372 1372 1391 1409 1376 1358 1352 1403 1405 1439 1415 1471 1459 1477 1419 1376 1368 1376 1453 1526 1549 1564 1609 1707 1712 1633 1589 1522 1522 1500 1488 1437 1424 1371 1342 1342 1344 1342 1266 1281 1233 1233 1171 1182 1280 1302 1390 1412 1402 1425 1497 1506 1601 1679 1719 1747 1777 1838 1857 1875 1882 1873 1915 1931 1934 1913 1947 1950 1950 1934 1943 1990 1977 1992 2021 2021 2013 2042 2091 2134 2166 2166 2188 2151 2119 2077 2040 2000 2061 2031 2041 2060 2055 2032 2040 2060 2071 2067 2073 2086 2109 2106 2132 2152 2176 2220 2246 2244 2244 2278 2279 2298 2276 2299 2252 2252 2257 2287 2348 2357 2386 2386 2403 2403 2413 2416 2424 2410 2402 2323 2274 2223 2173 2119 2069 2061 2026 2003
747 752 759 764 763 763 770 773 773 769 775 779 783 787 798 811 813 836 841 843 843 856 847 837 847 828 852 836 850 855 834 836 867 845 853 852 861 887 881 881 893 887 896 885 869 869 842 842 841 844 871 874 874 838 828 830 836 835 839 836 841 847 847 841 848 851 851 861 857 861 865 873 870 875 876 876 887 901 921 921 930 971 976 1002 1000 1005 996 1007 996 986 1015 1060 1060 1091 1091 1101 1123 1128 1158 1148 1185 1290 1323 1338 1384 1361 1361 1310 1278 1329 1357 1345 1299 1297 1316 1370 1340 1388 1387 1387 1369 1404 1381 1376 1363 1376 1431 1513 1534 1607 1648 1738 1738 1660 1597 1541 1504 1472 1456 1427 1416 1366 1341 1337 1344 1279 1242 1219 1230 1220 1164 1201 1256 1295 1329 1373 1389 1465 1561 1561 1659 1672 1722 1747 1771 1828 1828 1829 1852 1838 1883 1887 1887 1885 1900 1913 1929 1914 1946 1943 1983 1969 1983 1999 2007 2045 2054 2096 2132 2161 2190 2188 2189 2135 2159 2092 2098 2060 2061 2061 2103 2073 2065 2060 2073 2096 2096 2119 2084 2109 2127 2134 2134 2161 2196 2172 2219 2246 2279 2261 2277 2228 2246 2236 2275 2313 2321 2364 2388 2400 2407 2420 2406 2406 2425 2408 2395 2323 2263 2263 2199 2167 2109 2053 2027 1983
748 751 760 767 768 768 774 773 776 776 778 778 785 787 800 800 804 812 827 824 844 830 830 826 833 840 841 855 852 857 864 874 867 878 853 880 858 873 888 885 894 900 889 891 846 843 836 836 861 861 881 887 855 838 820 820 831 829 838 840 838 837 837 848 848 847 854 859 857 857 861 864 870 872 876 884 888 908 908 910 950 961 987 977 995 993 989 995 987 987 979 1016 1062 1091 1059 1038 1075 1099 1123 1215 1250 1291 1291 1286 1282 1263 1286 1258 1278 1253 1301 1332 1299 1276 1308 1308 1289 1309 1300 1329 1323 1358 1312 1338 1346 1386 1468 1513 1556 1556 1646 1718 1727 1654 1593 1576 1544 1491 1454 1441 1399 1352 1352 1308 1299 1263 1242 1206 1230 1206 1195 1180 1245 1296 1286 1336 1358 1413 1567 1611 1666 1696 1681 1693 1696 1763 1808 1829 1817 1817 1798 1814 1855 1875 1885 1875 1875 1879 1912 1933 1967 1960 1960 1966 1985 2021 2054 2095 2132 2112 2123 2164 2188 2172 2214 2146 2184 2128 2120 2106 2109 2089 2121 2099 2095 2104 2130 2119 2096 2114 2097 2112 2125 2138 2155 2158 2158 2188 2239 2225 2227 2221 2221 2254 2245 2288 2321 2362 2365 2365 2380 2393 2372 2416 2415 2396 2377 2362 2286 2238 2167 2138 2114 2088 2053 2024
744 747 760 765 768 768 772 777 772 778 779 780 780 785 787 788 798 807 800 806 804 822 814 826 847 835 829 840 852 859 866 873 873 880 888 891 890 887 887 885 887 888 889 846 830 830 831 830 851 875 868 863 840 828 827 830 828 829 832 836 837 839 842 847 848 847 851 851 856 856 861 866 866 866 871 875 888 909 908 922 930 955 989 993 963 963 969 977 964 963 973 1021 992 1020 1023 1038 1055 1099 1182 1182 1209 1198 1247 1197 1220 1201 1240 1205 1213 1239 1278 1258 1258 1240 1285 1273 1289 1259 1300 1252 1244 1274 1305 1322 1405 1405 1482 1530 1597 1606 1686 1732 1719 1699 1630 1576 1523 1491 1462 1466 1454 1430 1385 1335 1297 1308 1266 1226 1199 1169 1180 1195 1195 1247 1270 1287 1358 1450 1596 1596 1623 1655 1645 1655 1696 1696 1739 1773 1749 1780 1780 1814 1784 1838 1833 1855 1852 1866 1911 1907 1916 1950 1948 1968 1987 2003 2028 2034 2080 2109 2123 2159 2159 2179 2213 2233 2211 2179 2175 2175 2156 2131 2159 2122 2152 2152 2178 2163 2158 2114 2110 2112 2145 2135 2147 2149 2166 2197 2223 2209 2219 2255 2272 2334 2285 2313 2293 2312 2340 2365 2380 2372 2372 2396 2384 2381 2335 2326 2249 2249 2203 2168 2132 2090 2061 2028
747 752 752 762 771 772 772 773 773 771 776 782 784 785 791 791 796 795 802 800 802 806 814 815 826 835 829 840 844 862 859 868 873 879 882 889 892 889 886 871 888 867 867 830 834 823 831 833 833 846 848 851 829 824 825 825 832 834 829 827 836 839 836 839 839 847 847 851 848 856 856 858 864 861 863 861 872 899 906 921 933 947 947 969 971 956 969 956 935 961 929 963 973 993 1010 1010 1060 1069 1125 1179 1139 1198 1138 1167 1168 1201 1197 1175 1175 1173 1201 1221 1211 1238 1269 1223 1225 1225 1232 1235 1244 1287 1287 1359 1376 1438 1546 1595 1652 1642 1691 1715 1694 1664 1597 1597 1558 1529 1498 1466 1471 1430 1443 1414 1344 1313 1266 1234 1234 1155 1148 1172 1186 1247 1263 1289 1309 1418 1517 1605 1623 1633 1633 1616 1668 1700 1705 1743 1711 1711 1729 1755 1774 1816 1810 1810 1800 1828 1880 1907 1935 1950 1946 1959 1965 1984 2005 2030 2077 2081 2109 2134 2154 2227 2242 2269 2281 2264 2222 2189 2156 2179 2181 2152 2163 2181 2211 2191 2178 2178 2149 2140 2210 2184 2172 2172 2209 2184 2206 2209 2247 2319 2319 2389 2355 2345 2330 2328 2337 2358 2355 2369 2378 2407 2384 2366 2359 2281 2258 2204 2167 2157 2131 2110 2073 2045
749 748 754 767 770 767 769 771 772 772 776 779 779 790 791 807 796 801 821 818 830 812 822 814 830 830 853 853 852 859 866 866 876 872 884 889 886 853 853 845 857 831 840 821 824 824 823 825 831 836 848 845 827 826 817 825 822 834 836 836 834 836 837 844 839 839 856 849 845 856 859 859 859 858 860 863 877 902 902 911 903 913 938 928 952 930 949 906 935 923 929 945 945 967 1018 1045 1049 1069 1047 1095 1092 1115 1096 1139 1159 1159 1150 1181 1129 1173 1163 1221 1187 1126 1186 1183 1182 1211 1211 1242 1257 1312 1350 1411 1442 1504 1516 1635 1652 1674 1691 1703 1637 1661 1625 1591 1580 1544 1570 1517 1491 1469 1423 1401 1354 1354 1318 1269 1196 1155 1148 1185 1185 1210 1251 1316 1356 1456 1456 1513 1589 1588 1605 1631 1668 1651 1665 1670 1691 1680 1698 1726 1700 1750 1768 1786 1795 1843 1874 1900 1918 1921 1941 1959 1954 1954 1981 2006 2041 2087 2116 2161 2161 2199 2240 2254 2286 2285 2285 2288 2232 2237 2181 2176 2163 2203 2219 2265 2250 2178 2192 2206 2257 2251 2279 2241 2240 2205 2250 2251 2290 2295 2374 2389 2368 2368 2381 2387 2360 2381 2356 2360 2360 2374 2381 2330 2305 2249 2249 2206 2176 2141 2131 2092 2073 2035
747 747 746 760 764 772 768 768 768 775 775 778 784 790 812 803 819 818 821 834 830 845 842 835 829 845 839 851 837 840 862 865 878 880 884 884 832 834 850 845 836 819 822 812 820 820 822 833 833 875 856 836 818 818 820 825 825 828 836 834 834 834 835 842 850 846 848 847 845 845 853 856 857 855 862 862 872 886 904 911 890 912 917 895 899 898 911 922 922 939 923 923 932 973 1018 977 1020 1005 1047 1052 1060 1060 1046 1052 1073 1115 1079 1124 1084 1105 1120 1151 1127 1126 1168 1168 1172 1184 1209 1257 1300 1289 1321 1419 1459 1555 1592 1626 1626 1597 1648 1581 1637 1606 1625 1579 1608 1614 1560 1515 1472 1472 1444 1411 1384 1340 1286 1235 1192 1157 1128 1159 1191 1210 1262 1262 1341 1377 1449 1483 1572 1476 1520 1595 1634 1625 1651 1626 1626 1609 1662 1677 1700 1700 1768 1756 1809 1831 1884 1903 1914 1919 1931 1933 1959 1960 1983 2022 2023 2051 2089 2131 2171 2199 2220 2200 2223 2225 2285 2295 2268 2230 2230 2219 2213 2261 2272 2281 2281 2251 2217 2255 2257 2319 2322 2322 2301 2263 2315 2317 2353 2353 2427 2425 2420 2384 2425 2387 2410 2391 2398 2372 2363 2376 2367 2366 2327 2311 2237 2200 2175 2147 2147 2105 2067 2019
748 748 747 760 758 764 765 763 766 772 777 770 773 779 786 793 797 807 807 816 841 847 842 821 821 822 832 835 859 860 866 866 874 879 844 841 832 837 838 845 818 819 817 812 810 815 826 833 838 866 861 831 819 821 821 829 830 828 828 840 839 836 835 843 843 843 841 843 845 845 855 855 849 853 854 860 878 884 894 898 890 912 936 895 896 878 911 937 936 954 938 960 938 939 950 964 987 982 982 975 1034 1048 1046 1038 1038 1038 1046 1055 1079 1083 1100 1100 1160 1146 1192 1199 1244 1215 1284 1241 1256 1289 1369 1476 1523 1553 1582 1550 1556 1502 1565 1492 1522 1527 1542 1584 1643 1610 1610 1529 1496 1457 1461 1421 1374 1374 1265 1237 1175 1152 1130 1130 1176 1203 1254 1296 1341 1377 1362 1418 1429 1433 1496 1572 1610 1580 1580 1565 1586 1581 1633 1603 1638 1649 1692 1792 1809 1860 1860 1910 1901 1925 1938 1942 1947 1947 1993 2011 2044 2069 2130 2130 2164 2178 2191 2200 2215 2225 2223 2271 2283 2281 2260 2272 2257 2311 2310 2344 2308 2304 2267 2296 2295 2345 2359 2349 2301 2305 2305 2361 2429 2429 2459 2446 2439 2439 2465 2458 2434 2418 2414 2414 2377 2360 2372 2366 2339 2311 2312 2237 2189 2153 2131 2069 2043 2030
747 747 747 746 755 758 761 765 770 772 769 770 779 779 779 784 788 801 812 829 839 808 814 817 826 831 836 849 849 843 858 869 874 854 820 821 822 823 812 818 809 809 810 810 811 817 834 833 836 838 848 831 813 819 819 824 827 831 829 836 844 839 839 839 842 846 841 843 843 843 848 848 848 848 851 857 879 886 905 889 896 896 925 931 879 878 922 937 905 921 929 969 964 964 964 1013 992 996 978 979 1012 1007 1025 1023 1021 1046 1046 1066 1066 1131 1174 1174 1227 1215 1262 1243 1336 1336 1334 1287 1308 1308 1385 1405 1490 1553 1537 1550 1453 1427 1458 1446 1486 1474 1474 1570 1632 1592 1567 1511 1484 1510 1486 1455 1423 1344 1265 1213 1162 1139 1132 1150 1189 1235 1233 1265 1280 1322 1350 1397 1366 1366 1458 1506 1530 1580 1541 1535 1535 1537 1567 1603 1627 1682 1720 1771 1833 1877 1890 1917 1922 1917 1930 1920 1944 1955 2004 2027 2032 2060 2095 2146 2154 2170 2191 2191 2222 2210 2232 2254 2279 2279 2304 2309 2326 2374 2360 2385 2385 2373 2327 2323 2318 2358 2372 2384 2355 2374 2354 2412 2429 2447 2465 2478 2499 2463 2483 2476 2496 2460 2452 2426 2378 2367 2393 2393 2393 2343 2296 2237 2188 2188 2134 2079 2060 2016
752 747 749 747 752 751 756 762 764 768 770 770 772 776 778 784 791 791 794 816 806 806 811 817 817 820 823 824 831 840 853 866 861 826 820 818 822 812 819 812 802 806 815 814 813 812 822 827 839 844 817 817 814 817 826 824 829 829 830 836 837 837 841 839 839 841 845 837 840 839 846 840 844 848 851 870 879 877 886 890 885 893 913 895 889 874 889 891 904 902 916 916 956 984 1034 1013 1021 1047 1047 1045 1022 1038 1008 1031 1031 1053 1075 1109 1134 1152 1174 1173 1223 1235 1262 1298 1371 1377 1398 1347 1391 1388 1425 1434 1473 1485 1438 1472 1409 1427 1419 1419 1403 1428 1505 1583 1605 1568 1568 1536 1520 1497 1480 1420 1420 1341 1298 1208 1162 1122 1132 1134 1159 1190 1237 1261 1280 1318 1317 1321 1321 1373 1442 1469 1428 1467 1450 1494 1516 1537 1576 1576 1657 1734 1744 1815 1854 1870 1870 1875 1913 1901 1912 1974 1974 2002 1975 2031 2032 2092 2095 2141 2170 2179 2205 2211 2246 2245 2266 2245 2281 2276 2338 2358 2377 2385 2414 2408 2425 2373 2344 2388 2372 2400 2389 2421 2381 2418 2418 2448 2434 2455 2476 2483 2483 2511 2486 2507 2496 2457 2438 2438 2379 2391 2422 2421 2377 2334 2287 2261 2210 2177 2115 2079 2088 2036
753 754 750 745 752 756 756 758 763 768 767 777 776 774 782 781 787 787 789 802 799 799 805 810 808 820 826 845 845 851 856 819 828 807 807 813 811 813 809 805 802 809 811 813 813 818 825 825 828 830 819 813 814 816 823 818 833 827 829 836 839 839 836 837 839 838 839 838 836 840 839 843 846 849 849 861 869 869 886 876 885 874 892 900 870 864 905 905 973 967 968 934 955 1004 993 1043 1079 1056 1078 1045 1101 1101 1065 1075 1051 1056 1074 1077 1095 1123 1124 1172 1206 1229 1229 1316 1336 1404 1398 1385 1391 1440 1444 1454 1468 1435 1375 1375 1358 1367 1359 1368 1401 1434 1465 1524 1548 1586 1555 1536 1496 1456 1437 1382 1381 1304 1280 1236 1172 1126 1121 1146 1175 1211 1211 1264 1279 1300 1317 1293 1326 1326 1351 1404 1404 1430 1467 1467 1528 1551 1620 1637 1716 1734 1772 1800 1832 1852 1863 1884 1903 1916 1936 1979 2013 2049 2023 2069 2069 2133 2138 2159 2170 2196 2196 2228 2245 2269 2271 2265 2312 2312 2344 2352 2372 2392 2399 2442 2427 2420 2412 2388 2444 2400 2468 2450 2450 2453 2451 2481 2470 2482 2479 2485 2501 2511 2515 2500 2500 2439 2434 2413 2379 2420 2420 2431 2370 2336 2228 2212 2162 2162 2119 2118 2079 2065
750 751 748 747 747 755 760 762 763 768 768 767 774 776 782 784 792 792 797 790 800 800 811 804 831 823 850 845 864 851 819 818 807 799 804 804 810 805 808 795 798 809 806 811 811 815 820 830 828 826 826 807 816 818 819 828 831 831 835 830 835 834 834 835 834 839 838 838 836 840 835 838 841 845 848 859 868 867 866 860 872 879 898 888 888 856 889 945 973 993 1018 1010 997 961 1003 1056 1102 1102 1121 1114 1122 1110 1106 1075 1129 1098 1111 1077 1110 1164 1135 1197 1186 1210 1231 1285 1358 1344 1410 1429 1421 1454 1444 1454 1454 1437 1393 1335 1326 1344 1305 1305 1332 1416 1465 1502 1473 1473 1504 1514 1460 1456 1396 1382 1333 1334 1271 1232 1171 1120 1126 1132 1153 1200 1228 1258 1286 1280 1300 1282 1282 1322 1351 1386 1386 1419 1494 1511 1599 1610 1669 1669 1696 1721 1766 1799 1828 1828 1855 1872 1878 1916 1947 1979 1988 2012 2071 2089 2126 2122 2154 2147 2161 2182 2210 2240 2253 2251 2264 2253 2282 2352 2344 2363 2385 2390 2379 2387 2420 2421 2430 2430 2456 2484 2485 2468 2450 2450 2465 2477 2478 2482 2491 2465 2465 2471 2490 2485 2480 2428 2408 2424 2395 2395 2428 2401 2370 2324 2284 2215 2190 2121 2101 2089 2125 2107
755 749 751 749 749 756 765 765 760 763 768 767 780 773 778 783 786 798 804 802 817 821 844 850 851 850 849 849 817 814 802 808 799 799 802 804 800 805 797 804 804 804 806 817 819 824 826 817 819 818 811 808 816 808 808 815 827 828 830 833 831 827 821 833 833 835 837 837 839 838 835 838 841 845 843 849 855 853 867 876 876 884 886 897 883 908 947 947 964 997 1018 1031 997 981 981 983 1016 1089 1143 1137 1169 1158 1213 1174 1162 1138 1162 1162 1173 1161 1223 1197 1206 1210 1252 1313 1311 1356 1401 1421 1421 1424 1434 1449 1446 1416 1364 1341 1307 1281 1293 1284 1332 1425 1401 1427 1391 1448 1427 1440 1390 1412 1363 1352 1311 1298 1254 1254 1197 1148 1116 1132 1185 1222 1222 1231 1248 1274 1290 1274 1274 1317 1327 1393 1414 1486 1494 1557 1579 1630 1651 1693 1713 1743 1760 1780 1782 1812 1840 1857 1862 1888 1883 1930 1969 2012 2031 2031 2033 2087 2089 2083 2139 2180 2180 2217 2236 2225 2230 2247 2280 2280 2356 2373 2385 2395 2379 2406 2395 2416 2421 2420 2434 2456 2457 2467 2438 2446 2462 2465 2449 2449 2440 2455 2458 2471 2477 2477 2466 2464 2460 2423 2384 2425 2425 2405 2372 2295 2251 2180 2154 2138 2129 2137 2125 2146
751 749 750 750 748 763 757 760 765 774 774 771 774 775 781 784 790 789 799 802 817 825 844 824 811 823 798 807 802 799 788 795 791 797 799 795 794 794 792 798 805 804 813 808 814 807 820 809 812 803 803 814 813 817 790 815 825 823 826 830 831 824 831 831 833 830 830 829 834 835 836 837 846 840 845 848 855 855 860 884 906 914 901 897 876 855 905 888 939 983 983 983 1022 1039 996 1012 1016 1035 1093 1147 1181 1200 1204 1204 1199 1196 1199 1192 1236 1215 1264 1259 1285 1260 1322 1313 1338 1338 1384 1409 1417 1430 1436 1438 1438 1385 1374 1285 1264 1258 1258 1283 1320 1378 1401 1360 1391 1354 1412 1376 1358 1358 1318 1317 1269 1274 1215 1206 1168 1131 1124 1133 1173 1213 1222 1231 1251 1251 1244 1295 1310 1378 1370 1440 1440 1516 1530 1541 1592 1627 1627 1634 1685 1739 1760 1754 1782 1775 1810 1834 1837 1857 1867 1910 1870 1919 1895 1979 1998 2050 2021 2051 2107 2147 2206 2217 2231 2188 2196 2228 2254 2274 2347 2372 2372 2394 2409 2417 2394 2414 2414 2417 2427 2429 2457 2444 2420 2420 2433 2430 2413 2422 2422 2432 2427 2456 2456 2464 2486 2464 2497 2477 2404 2386 2423 2354 2328 2292 2257 2222 2166 2183 2161 2171 2171 2219
750 751 751 751 756 763 756 758 759 766 768 767 770 769 774 777 782 780 790 789 789 782 806 792 811 797 797 790 792 790 787 787 795 795 793 793 789 790 797 797 802 802 805 808 806 807 809 809 796 802 809 819 816 818 811 822 825 821 829 827 827 833 828 832 833 831 830 829 830 833 832 844 855 855 865 859 861 858 867 895 872 914 905 897 860 855 861 853 872 938 963 993 1022 996 1041 1058 1059 1059 1077 1141 1141 1140 1176 1165 1199 1174 1195 1195 1216 1244 1248 1279 1318 1318 1346 1338 1333 1359 1395 1409 1423 1429 1447 1445 1377 1331 1310 1268 1250 1222 1258 1320 1343 1308 1329 1295 1322 1334 1361 1314 1314 1301 1330 1271 1222 1210 1183 1183 1152 1120 1139 1148 1173 1173 1189 1205 1225 1247 1298 1295 1363 1369 1423 1462 1484 1496 1513 1473 1508 1571 1605 1654 1707 1711 1719 1728 1750 1770 1810 1817 1817 1809 1797 1832 1827 1864 1893 1893 1942 1985 2052 2086 2172 2172 2208 2207 2193 2188 2204 2228 2233 2257 2268 2298 2348 2371 2410 2393 2422 2453 2432 2420 2418 2443 2443 2428 2434 2410 2433 2409 2385 2402 2400 2423 2405 2442 2460 2460 2507 2507 2492 2465 2402 2402 2400 2394 2319 2292 2266 2222 2255 2240 2232 2243 2234 2216
749 752 753 753 750 756 757 758 761 765 763 763 768 769 778 777 776 773 778 774 777 772 785 780 786 782 786 779 787 785 785 785 790 793 793 787 797 792 795 793 796 797 800 800 805 804 798 801 799 802 810 811 818 818 825 824 824 820 827 827 828 828 828 827 827 830 827 830 830 830 830 839 845 857 868 868 882 880 894 873 855 875 884 884 851 851 864 853 873 938 945 965 962 948 1009 1042 1042 1055 1097 1112 1119 1102 1128 1116 1127 1156 1156 1185 1216 1205 1205 1241 1269 1315 1337 1322 1327 1327 1351 1398 1425 1440 1429 1429 1349 1325 1291 1268 1224 1222 1243 1307 1313 1260 1276 1266 1290 1268 1289 1263 1280 1253 1292 1196 1207 1174 1181 1141 1152 1108 1126 1143 1162 1168 1182 1214 1280 1280 1349 1350 1392 1415 1439 1439 1424 1448 1455 1473 1546 1598 1598 1671 1671 1665 1687 1720 1739 1714 1752 1752 1778 1768 1797 1764 1798 1848 1855 1923 2002 2029 2090 2131 2172 2201 2190 2185 2159 2159 2190 2214 2240 2257 2263 2263 2278 2329 2355 2378 2443 2428 2428 2397 2397 2416 2421 2405 2411 2390 2394 2378 2385 2386 2400 2396 2413 2421 2454 2491 2492 2492 2468 2456 2424 2399 2410 2378 2354 2354 2332 2293 2268 2240 2223 2223 2189 2152
759 753 751 755 749 759 762 760 764 766 765 765 775 775 771 774 768 773 775 775 770 771 771 773 776 780 780 781 778 775 784 791 788 787 788 792 797 785 795 792 792 802 805 799 798 798 799 806 807 807 811 810 819 819 822 827 821 820 825 827 823 824 824 831 827 826 826 827 828 830 831 848 859 851 858 869 882 875 894 863 849 844 839 852 851 860 885 893 863 864 896 945 907 907 945 999 1014 1055 1109 1112 1112 1115 1106 1146 1163 1210 1210 1243 1227 1264 1235 1255 1269 1269 1313 1307 1314 1324 1367 1394 1352 1404 1414 1386 1330 1294 1274 1260 1198 1214 1282 1307 1267 1267 1226 1240 1250 1247 1242 1226 1226 1176 1177 1148 1160 1132 1132 1128 1115 1117 1126 1154 1162 1151 1166 1233 1304 1322 1345 1369 1354 1392 1401 1413 1382 1406 1423 1466 1535 1578 1652 1671 1651 1651 1653 1649 1677 1653 1703 1709 1709 1774 1770 1842 1841 1876 1876 1956 1981 2056 2090 2155 2172 2188 2163 2165 2160 2165 2215 2229 2223 2234 2240 2256 2271 2298 2332 2332 2360 2394 2365 2397 2377 2350 2384 2378 2388 2380 2385 2374 2374 2399 2390 2409 2426 2435 2454 2471 2491 2476 2468 2455 2422 2422 2444 2445 2392 2364 2319 2303 2270 2253 2188 2185 2144 2152
761 753 753 752 753 751 762 764 764 766 768 763 769 769 766 770 767 767 773 777 783 771 773 773 780 773 783 781 778 783 784 789 783 787 792 787 787 792 791 794 795 798 805 805 795 803 799 802 806 806 805 812 817 820 826 825 826 825 820 828 823 824 824 824 830 823 828 826 830 824 836 837 839 850 860 852 852 837 849 854 849 846 839 844 850 878 917 908 877 877 884 876 866 876 921 965 911 966 960 1065 1107 1115 1129 1129 1138 1191 1234 1213 1270 1263 1285 1285 1275 1277 1302 1324 1324 1320 1351 1329 1352 1385 1414 1377 1333 1307 1253 1225 1185 1242 1245 1257 1250 1250 1201 1212 1194 1239 1200 1211 1152 1176 1135 1106 1100 1109 1125 1154 1134 1131 1131 1130 1135 1171 1193 1267 1267 1303 1327 1330 1354 1380 1367 1367 1327 1384 1468 1514 1603 1630 1604 1629 1572 1595 1634 1649 1613 1638 1695 1692 1754 1814 1830 1869 1891 1960 1936 1983 2006 2070 2070 2144 2161 2177 2163 2143 2143 2171 2176 2209 2216 2230 2227 2227 2220 2252 2289 2327 2291 2322 2289 2328 2331 2350 2365 2378 2347 2359 2383 2370 2390 2396 2399 2424 2423 2434 2438 2484 2482 2499 2499 2481 2449 2411 2444 2418 2418 2344 2296 2273 2218 2208 2163 2163 2126 2113
754 754 752 755 756 756 756 760 760 761 768 764 764 765 764 766 772 769 779 779 775 776 775 777 781 775 772 779 780 783 789 789 794 793 790 796 783 797 797 809 801 805 802 804 803 806 806 807 807 804 805 808 817 815 818 830 825 823 819 819 823 821 824 823 825 823 822 825 825 824 836 837 847 855 855 825 828 840 846 834 841 907 887 893 886 940 940 960 946 926 884 896 873 873 892 880 883 931 949 949 984 1051 1061 1097 1155 1191 1145 1186 1202 1263 1295 1313 1281 1304 1297 1312 1323 1283 1311 1213 1265 1292 1373 1349 1333 1269 1269 1172 1173 1192 1201 1232 1252 1252 1222 1195 1144 1207 1161 1161 1097 1113 1091 1106 1108 1109 1139 1157 1191 1194 1141 1135 1156 1147 1167 1199 1261 1293 1306 1312 1319 1337 1359 1311 1327 1407 1407 1472 1545 1580 1530 1543 1546 1546 1582 1596 1631 1676 1744 1744 1801 1786 1846 1869 1920 1960 1993 2021 2008 2057 2104 2138 2159 2139 2144 2160 2165 2177 2191 2195 2196 2221 2236 2213 2220 2242 2226 2259 2235 2257 2269 2302 2311 2311 2331 2352 2352 2364 2368 2370 2382 2410 2418 2424 2426 2461 2461 2501 2504 2503 2501 2474 2438 2426 2407 2429 2387 2309 2296 2217 2217 2191 2191 2135 2120 2100
757 751 751 759 754 748 757 760 763 756 763 767 764 766 767 767 767 774 778 778 776 773 781 775 784 780 787 787 787 787 779 781 793 805 812 796 827 838 842 845 808 810 810 815 810 804 815 811 812 814 811 819 812 824 818 825 825 819 821 822 822 820 817 822 823 819 821 827 823 823 830 836 839 855 837 825 827 857 843 877 890 920 920 931 912 957 974 1011 981 1031 982 1011 934 922 892 892 892 885 902 936 998 1028 1025 1068 1069 1117 1117 1173 1194 1194 1230 1286 1304 1304 1280 1312 1241 1191 1194 1174 1222 1291 1291 1279 1295 1229 1201 1140 1173 1155 1169 1136 1208 1242 1222 1107 1072 1108 1126 1123 1077 1081 1115 1115 1145 1147 1163 1174 1207 1207 1193 1142 1143 1147 1173 1221 1221 1264 1306 1319 1330 1318 1306 1272 1298 1378 1417 1489 1545 1495 1510 1514 1514 1580 1637 1624 1685 1705 1749 1768 1824 1833 1862 1862 1908 1958 2033 2021 2054 2054 2100 2108 2118 2142 2149 2173 2173 2196 2193 2211 2206 2199 2214 2198 2197 2202 2226 2224 2235 2202 2234 2271 2286 2318 2352 2366 2369 2369 2372 2380 2400 2420 2429 2429 2441 2451 2509 2501 2506 2506 2485 2464 2459 2431 2427 2406 2406 2312 2277 2228 2200 2159 2168 2138 2121 2086
757 760 757 759 759 759 749 755 755 760 768 771 771 765 769 776 771 774 775 778 778 777 781 787 784 783 787 794 825 805 839 803 850 797 810 810 822 840 836 836 824 831 834 815 821 851 823 823 817 816 819 819 819 820 824 825 823 817 821 821 823 818 817 825 816 817 820 816 820 821 830 834 826 834 826 820 838 857 872 872 890 900 920 949 945 1010 1010 1081 1062 1091 1048 1059 1059 1014 986 959 919 897 902 895 912 991 1016 1050 1045 1070 1044 1100 1184 1200 1186 1239 1190 1245 1190 1243 1211 1191 1159 1159 1201 1259 1288 1224 1230 1170 1170 1136 1131 1071 1070 1126 1126 1107 1131 1071 1072 1082 1126 1078 1121 1119 1141 1125 1163 1175 1205 1213 1226 1214 1166 1149 1161 1150 1168 1186 1218 1264 1296 1244 1284 1249 1258 1282 1320 1414 1414 1456 1462 1472 1483 1552 1552 1630 1637 1686 1685 1730 1767 1767 1805 1839 1883 1885 1937 1986 2027 2104 2115 2103 2137 2124 2172 2151 2162 2163 2153 2196 2199 2173 2178 2166 2183 2171 2197 2194 2194 2185 2175 2197 2216 2259 2259 2309 2336 2372 2369 2360 2388 2388 2413 2425 2433 2435 2466 2482 2489 2510 2512 2505 2486 2464 2447 2447 2467 2445 2381 2288 2255 2232 2217 2163 2137 2130 2102 2048
760 759 757 759 760 756 750 755 760 760 760 768 769 772 763 767 766 775 774 777 776 779 779 785 782 791 787 810 825 844 845 859 860 828 839 839 829 819 835 821 847 837 872 866 877 851 845 823 816 816 825 819 812 819 823 821 822 818 819 821 819 821 821 816 816 816 820 823 820 816 828 824 818 824 823 823 849 857 872 888 895 893 908 933 987 997 1066 1081 1134 1155 1152 1167 1110 1078 1033 1121 1014 974 915 907 901 946 946 997 1019 1028 1044 1133 1159 1159 1129 1159 1123 1147 1158 1158 1099 1153 1108 1157 1212 1259 1244 1237 1138 1148 1124 1054 1073 1002 1020 1013 1077 1066 1069 1118 1124 1112 1077 1090 1121 1147 1147 1162 1147 1182 1259 1238 1212 1212 1156 1151 1175 1150 1166 1187 1190 1206 1207 1244 1234 1249 1293 1300 1301 1346 1411 1416 1441 1480 1513 1585 1611 1645 1677 1690 1690 1769 1765 1794 1805 1853 1853 1915 2006 2002 2076 2107 2094 2094 2109 2143 2157 2170 2149 2152 2117 2144 2147 2173 2160 2166 2170 2147 2165 2157 2161 2158 2177 2214 2250 2286 2283 2313 2366 2384 2384 2385 2384 2414 2413 2427 2413 2425 2457 2470 2491 2508 2497 2497 2448 2462 2447 2470 2478 2457 2413 2350 2278 2232 2185 2150 2150 2166 2130 2094
760 759 758 754 761 761 756 751 754 761 761 768 767 760 770 767 769 775 769 774 778 781 785 786 794 797 796 800 809 829 848 841 841 848 859 857 829 860 879 874 874 876 903 905 902 902 906 887 861 825 825 819 820 818 820 821 817 817 817 818 817 814 815 818 813 818 817 816 816 822 828 824 824 824 823 840 855 864 881 881 892 903 920 956 1021 1021 1029 1084 1135 1155 1168 1167 1194 1168 1180 1167 1054 987 937 952 920 900 936 958 1005 984 1030 1084 1139 1130 1129 1120 1120 1094 1103 1090 1065 1074 1100 1100 1121 1184 1142 1156 1062 1062 1026 1042 1001 1002 1022 1013 1065 1074 1091 1162 1154 1146 1108 1131 1148 1178 1169 1176 1179 1232 1232 1272 1248 1176 1156 1177 1198 1175 1168 1165 1190 1196 1230 1230 1295 1290 1347 1339 1334 1334 1356 1377 1450 1480 1563 1553 1553 1616 1649 1700 1725 1822 1816 1857 1833 1881 1887 1984 2006 2031 2037 2064 2076 2063 2086 2115 2090 2117 2112 2114 2100 2130 2128 2128 2120 2142 2132 2147 2143 2143 2135 2133 2172 2221 2250 2309 2309 2333 2342 2407 2395 2409 2403 2423 2413 2431 2413 2440 2457 2467 2473 2504 2511 2478 2440 2438 2470 2479 2469 2444 2354 2318 2253 2253 2201 2173 2186 2166 2123 2094
760 758 758 759 759 764 756 753 751 756 765 761 765 764 767 767 769 772 776 774 778 781 780 783 793 807 817 818 818 824 809 828 828 851 860 868 871 861 879 880 874 883 883 888 885 903 892 886 852 848 834 822 821 821 819 819 816 817 818 818 814 814 815 815 815 815 816 815 815 812 819 818 824 832 841 850 847 867 864 892 892 911 931 930 954 1000 1034 1074 1117 1153 1189 1190 1230 1231 1199 1199 1174 1089 1020 952 936 908 908 915 942 977 1013 1026 1026 999 1051 1031 1052 1079 1103 1048 1044 1032 1065 1073 1089 1114 1076 1071 1011 1007 1006 1011 1011 998 1113 1097 1116 1074 1153 1153 1177 1165 1177 1138 1168 1201 1201 1230 1209 1243 1256 1248 1210 1186 1156 1205 1198 1182 1168 1188 1184 1219 1251 1275 1328 1345 1387 1420 1400 1359 1403 1402 1472 1472 1496 1537 1565 1616 1652 1652 1722 1793 1843 1886 1894 1981 1981 1994 2006 2025 2043 2046 2046 2028 2050 2077 2090 2074 2112 2078 2060 2081 2079 2109 2083 2113 2071 2092 2100 2117 2136 2144 2197 2197 2231 2283 2328 2333 2374 2400 2420 2425 2427 2464 2445 2455 2455 2456 2468 2466 2479 2515 2511 2511 2471 2478 2470 2475 2452 2452 2359 2326 2255 2234 2218 2199 2219 2182 2090 2049
760 761 761 759 758 764 763 759 751 763 765 760 763 765 764 770 772 770 780 777 781 784 792 789 798 798 818 836 848 824 842 854 842 840 847 851 859 844 844 849 867 863 871 871 885 880 886 850 852 845 835 835 832 829 823 817 813 814 812 817 816 816 813 815 813 813 812 812 809 812 812 828 828 837 844 866 860 873 873 881 898 927 931 952 954 1000 1003 1058 1115 1171 1213 1220 1236 1251 1279 1224 1177 1072 1129 1040 1009 951 930 915 923 923 954 947 976 954 1005 986 986 1002 1041 1017 1009 984 984 1010 1046 1056 1076 1009 1011 996 1049 1037 1053 1071 1167 1142 1239 1220 1219 1189 1230 1212 1229 1185 1158 1188 1228 1230 1248 1282 1263 1274 1210 1192 1181 1215 1215 1212 1188 1196 1222 1254 1254 1282 1284 1367 1387 1446 1445 1445 1481 1463 1497 1472 1532 1550 1599 1619 1665 1689 1756 1793 1826 1860 1928 1962 1990 2003 2006 1993 2029 1990 2014 2005 2039 2053 2053 2046 2052 2054 2060 2051 2051 2057 2072 2053 2070 2090 2144 2144 2166 2177 2194 2219 2257 2296 2324 2351 2381 2400 2430 2425 2456 2468 2471 2474 2470 2495 2485 2475 2469 2513 2515 2498 2485 2485 2485 2482 2471 2418 2359 2308 2255 2272 2273 2228 2159 2133 2058 2058
764 764 768 761 761 766 761 765 765 756 756 761 763 764 764 765 774 774 773 776 780 780 787 790 790 799 807 825 814 832 834 854 827 840 832 832 838 846 846 850 858 872 858 878 875 848 848 848 848 853 850 842 832 831 820 820 815 813 813 817 813 813 816 811 807 817 805 809 814 811 815 825 836 837 845 857 868 868 878 878 907 909 946 969 974 1000 1025 1049 1049 1102 1174 1220 1236 1264 1294 1294 1272 1210 1151 1068 1025 1025 997 970 929 917 928 947 934 927 935 972 942 948 1006 961 968 980 964 965 1016 990 1017 981 987 1029 1049 1097 1097 1122 1139 1251 1314 1276 1274 1274 1271 1247 1196 1181 1186 1186 1287 1287 1305 1282 1294 1274 1239 1200 1184 1216 1234 1231 1200 1204 1205 1294 1299 1346 1326 1375 1375 1431 1488 1513 1481 1533 1533 1565 1575 1578 1659 1659 1731 1731 1796 1823 1862 1900 1942 1974 1985 1998 1987 1993 1965 1990 1941 1927 1974 2012 2027 2027 2040 2028 2030 2046 2045 2072 2072 2077 2077 2122 2111 2133 2166 2189 2194 2225 2263 2291 2332 2360 2414 2414 2444 2455 2462 2464 2480 2474 2478 2476 2485 2475 2528 2545 2545 2522 2518 2509 2495 2506 2473 2466 2405 2328 2311 2303 2273 2173 2173 2125 2082 2037
758 764 761 758 758 757 759 760 762 755 756 757 760 762 763 767 774 777 777 775 776 784 782 792 789 790 797 804 806 817 813 813 831 836 851 832 854 846 876 863 880 878 871 842 842 831 843 852 847 885 870 875 842 835 830 816 815 812 812 810 810 808 809 808 804 805 804 816 812 810 821 821 835 842 852 857 868 868 863 883 895 910 938 944 984 984 1011 1033 1045 1065 1130 1100 1189 1213 1267 1296 1272 1242 1257 1169 1115 1068 1037 1015 957 957 964 937 954 942 957 957 967 940 967 961 969 999 999 1034 963 978 977 996 1004 1017 1045 1125 1137 1222 1227 1300 1331 1351 1319 1285 1236 1211 1249 1236 1262 1239 1324 1318 1342 1342 1284 1265 1233 1212 1196 1196 1269 1280 1252 1204 1226 1320 1320 1360 1376 1374 1394 1478 1541 1579 1598 1609 1586 1611 1575 1629 1642 1693 1714 1764 1822 1850 1843 1862 1916 1955 1944 1962 1927 1927 1893 1920 1898 1927 1978 1978 1990 2012 2007 2070 2049 2086 2086 2114 2126 2152 2128 2136 2142 2154 2142 2180 2194 2236 2263 2281 2301 2352 2365 2418 2467 2469 2482 2475 2462 2465 2475 2474 2495 2495 2566 2563 2547 2522 2520 2520 2530 2521 2503 2456 2387 2351 2351 2325 2274 2203 2158 2115 2059 2070
763 763 762 760 750 757 761 760 764 764 754 759 763 764 764 770 769 778 767 778 776 778 783 788 789 787 797 798 802 807 822 841 865 853 846 861 857 869 850 868 879 879 842 840 840 831 850 888 888 894 890 835 833 824 824 815 808 808 809 806 810 808 810 801 804 801 807 809 813 810 819 820 838 842 845 856 854 858 870 883 893 893 888 919 932 980 1040 1049 1049 1082 1073 1099 1164 1173 1173 1233 1305 1304 1257 1207 1115 1147 1098 1012 1022 999 985 956 991 976 982 1001 1010 979 1016 983 985 1002 1055 1034 982 982 993 1034 1022 1046 1085 1183 1183 1251 1289 1358 1370 1359 1359 1316 1272 1243 1249 1288 1262 1288 1358 1373 1335 1317 1304 1259 1255 1223 1254 1228 1269 1295 1292 1245 1216 1259 1319 1360 1394 1424 1398 1447 1490 1587 1615 1647 1647 1703 1663 1639 1640 1694 1743 1730 1780 1809 1843 1871 1859 1859 1847 1884 1855 1870 1842 1889 1936 1931 1959 1982 2045 2014 2078 2078 2106 2088 2123 2139 2160 2129 2154 2138 2138 2155 2163 2189 2189 2224 2240 2284 2302 2354 2365 2399 2436 2479 2473 2468 2467 2467 2470 2481 2516 2564 2586 2565 2546 2553 2575 2547 2555 2521 2506 2506 2462 2369 2335 2292 2252 2194 2183 2111 2112 2070
767 762 758 755 765 759 763 762 761 764 755 755 762 762 765 769 766 766 772 774 779 779 783 790 790 779 791 799 802 804 822 828 856 848 820 839 822 822 838 844 849 846 819 833 836 844 862 886 891 894 850 850 823 815 817 809 808 806 806 807 807 802 809 804 804 803 806 810 813 815 819 819 828 842 842 850 847 847 868 872 870 881 877 895 894 945 980 1032 1060 1082 1092 1129 1115 1135 1172 1227 1302 1334 1334 1318 1229 1161 1095 1035 1035 1078 1005 994 991 1000 1013 1013 1062 1042 1017 1003 1008 1049 1033 1076 1078 1016 1023 1034 1087 1053 1093 1119 1212 1249 1333 1316 1347 1384 1369 1328 1273 1313 1313 1338 1314 1352 1358 1358 1358 1320 1310 1300 1265 1232 1271 1271 1260 1276 1254 1231 1229 1283 1314 1359 1412 1424 1447 1447 1482 1507 1595 1645 1675 1706 1671 1685 1649 1671 1666 1700 1756 1773 1773 1829 1842 1813 1847 1858 1858 1826 1891 1888 1969 1976 2048 2048 2064 2066 2083 2103 2136 2121 2138 2139 2097 2129 2142 2138 2132 2134 2156 2167 2206 2234 2248 2262 2298 2333 2373 2392 2448 2451 2451 2476 2468 2474 2470 2488 2509 2536 2609 2582 2552 2556 2580 2580 2578 2571 2561 2517 2411 2369 2330 2304 2255 2194 2148 2100 2100 2095
766 761 764 757 761 758 760 760 765 763 760 756 761 761 763 766 770 766 774 774 773 779 781 786 791 791 794 792 796 799 803 818 839 817 817 817 820 831 838 860 816 816 822 830 832 843 869 869 865 864 842 833 819 815 814 812 807 806 806 802 802 805 803 800 801 804 806 809 813 817 815 820 828 834 834 837 843 855 870 873 858 858 872 888 909 942 975 975 1017 1069 1119 1129 1138 1135 1151 1162 1211 1249 1326 1273 1224 1244 1172 1140 1102 1105 1028 1050 1019 1054 1031 1069 1062 1067 1067 1056 1093 1044 1060 1081 1101 1101 1127 1121 1127 1102 1123 1123 1177 1204 1251 1316 1366 1384 1388 1356 1330 1354 1360 1354 1333 1393 1401 1398 1345 1350 1337 1355 1326 1260 1243 1289 1260 1267 1264 1256 1250 1237 1314 1381 1413 1413 1492 1492 1516 1536 1636 1636 1687 1691 1718 1685 1702 1706 1706 1679 1697 1731 1773 1795 1796 1775 1805 1814 1816 1893 1891 1914 1914 2015 2034 2077 2095 2080 2085 2081 2076 2121 2108 2090 2079 2079 2109 2118 2128 2134 2143 2167 2176 2210 2234 2247 2290 2325 2325 2343 2359 2406 2454 2477 2470 2487 2477 2486 2509 2550 2609 2582 2582 2581 2577 2581 2561 2567 2513 2519 2438 2374 2313 2274 2236 2236 2155 2121 2103 2095
764 762 764 763 763 763 766 760 761 762 759 754 757 761 759 762 763 763 769 770 780 779 780 786 785 790 790 790 797 798 798 798 808 812 811 827 835 843 847 818 822 824 822 834 834 848 849 857 838 839 838 833 815 813 809 810 807 807 803 803 796 805 802 800 802 811 809 808 811 819 819 821 822 835 835 848 854 848 860 867 853 859 872 903 898 923 929 959 996 1056 1051 1074 1126 1156 1189 1187 1192 1192 1198 1268 1250 1244 1185 1195 1195 1171 1130 1120 1090 1089 1059 1100 1104 1139 1072 1087 1093 1139 1083 1080 1089 1135 1193 1169 1206 1170 1222 1172 1227 1220 1283 1283 1380 1392 1377 1356 1339 1339 1383 1374 1387 1427 1421 1395 1395 1416 1392 1339 1304 1271 1283 1332 1310 1284 1264 1280 1250 1245 1268 1340 1412 1436 1522 1521 1580 1577 1644 1670 1732 1731 1759 1759 1780 1760 1741 1679 1741 1741 1743 1777 1760 1804 1819 1891 1891 1933 1967 1984 1967 2035 2066 2050 2080 2085 2085 2065 2076 2065 2064 2067 2074 2092 2130 2111 2135 2111 2121 2147 2177 2213 2234 2234 2229 2264 2312 2343 2354 2351 2384 2417 2477 2492 2475 2502 2502 2533 2555 2591 2588 2578 2577 2558 2566 2527 2513 2455 2397 2397 2290 2274 2211 2206 2139 2119 2190 2157
768 764 762 766 764 766 765 761 762 761 759 752 760 759 762 763 768 770 768 781 780 782 782 782 784 784 790 790 793 797 795 798 806 811 811 819 830 818 825 815 815 830 839 842 837 837 849 830 831 848 838 824 808 811 809 804 800 806 805 796 796 800 797 802 808 811 812 812 815 813 817 824 824 827 827 833 842 857 864 849 849 847 852 860 898 905 929 940 949 995 1016 1048 1131 1178 1177 1216 1128 1151 1175 1231 1202 1241 1252 1209 1211 1171 1154 1154 1183 1150 1114 1152 1143 1161 1161 1129 1104 1163 1116 1136 1136 1174 1195 1240 1206 1259 1222 1292 1291 1294 1362 1356 1442 1410 1419 1384 1396 1372 1425 1391 1432 1418 1462 1432 1427 1416 1372 1339 1303 1307 1328 1358 1336 1297 1297 1324 1288 1266 1296 1363 1363 1430 1479 1580 1580 1627 1666 1666 1714 1757 1795 1792 1811 1781 1820 1798 1819 1777 1785 1777 1806 1806 1902 1895 1946 1988 2001 2052 2007 2014 2020 2028 2044 2046 2046 2096 2079 2089 2064 2067 2074 2109 2116 2146 2158 2113 2123 2123 2138 2179 2191 2215 2229 2264 2269 2307 2305 2351 2402 2417 2482 2482 2509 2495 2501 2534 2546 2544 2555 2554 2565 2553 2543 2482 2482 2426 2412 2328 2290 2228 2211 2216 2279 2203 2214 2198
764 767 767 764 767 763 762 766 764 762 762 762 756 763 762 768 768 767 769 772 772 773 781 781 783 784 785 789 791 797 796 795 796 804 806 819 821 815 801 816 823 846 861 832 829 823 824 838 845 846 846 820 812 809 809 806 798 798 795 798 802 797 805 805 804 809 810 807 816 817 819 819 817 822 826 832 843 839 858 841 847 872 848 860 853 849 881 937 964 978 978 1005 1043 1074 1042 1085 1060 1060 1081 1127 1183 1214 1263 1243 1294 1249 1249 1222 1205 1150 1187 1153 1174 1199 1199 1154 1150 1220 1193 1211 1180 1214 1251 1371 1371 1376 1344 1328 1291 1356 1356 1462 1457 1456 1428 1403 1438 1438 1500 1462 1509 1485 1519 1455 1484 1441 1365 1339 1300 1307 1346 1360 1379 1352 1342 1316 1282 1274 1282 1354 1406 1449 1530 1571 1571 1581 1650 1630 1714 1774 1774 1803 1800 1826 1833 1842 1853 1853 1854 1831 1903 1904 1977 1948 2004 1994 2068 2052 2050 2014 2049 2048 2041 2084 2073 2137 2134 2163 2129 2128 2123 2137 2137 2177 2177 2161 2135 2143 2138 2165 2148 2169 2184 2228 2265 2283 2351 2351 2412 2427 2463 2499 2519 2495 2487 2507 2542 2544 2539 2559 2559 2552 2551 2479 2438 2363 2339 2316 2280 2246 2227 2293 2279 2239 2239 2257
768 770 768 764 769 764 764 762 764 763 763 757 754 758 764 762 767 767 769 772 772 774 776 774 778 782 787 787 789 791 793 791 800 800 801 808 806 815 815 816 825 834 831 812 817 831 829 838 838 827 829 814 809 804 803 790 795 794 795 796 796 804 801 808 809 804 813 813 813 814 811 812 822 822 829 827 832 839 841 841 863 911 901 918 863 855 877 875 925 936 969 987 1015 976 1003 1018 1039 1062 1081 1120 1146 1199 1282 1303 1344 1322 1320 1320 1352 1252 1251 1191 1211 1211 1257 1220 1228 1220 1249 1240 1240 1310 1305 1417 1413 1408 1366 1407 1384 1445 1429 1504 1504 1520 1466 1475 1452 1506 1540 1519 1600 1593 1585 1534 1472 1434 1381 1381 1339 1310 1379 1406 1391 1391 1403 1365 1284 1300 1331 1400 1400 1422 1458 1453 1519 1526 1593 1564 1622 1701 1764 1805 1800 1811 1821 1835 1862 1876 1917 1934 1952 1961 1996 2010 2059 2063 2093 2093 2092 2078 2070 2048 2078 2084 2126 2139 2154 2183 2163 2154 2154 2171 2165 2211 2212 2197 2156 2188 2164 2164 2148 2165 2184 2225 2225 2284 2327 2362 2424 2447 2432 2470 2454 2478 2480 2520 2526 2526 2524 2567 2559 2552 2533 2479 2460 2428 2370 2330 2283 2292 2292 2301 2312 2322 2283 2316
770 772 768 768 765 767 760 762 761 763 766 760 753 761 764 765 765 768 771 773 775 778 776 782 775 784 784 788 789 792 793 798 804 803 805 811 808 811 812 810 819 825 816 816 818 825 839 838 823 817 817 807 810 803 798 795 795 811 793 794 798 803 801 805 813 812 811 810 812 819 815 825 824 826 834 829 842 840 861 867 889 911 937 937 941 883 859 864 891 906 906 935 961 968 994 1048 1048 1106 1101 1122 1146 1260 1282 1287 1321 1352 1393 1374 1398 1305 1381 1318 1320 1294 1296 1255 1320 1320 1339 1283 1330 1310 1407 1407 1432 1464 1442 1483 1468 1495 1495 1490 1513 1520 1505 1548 1514 1583 1560 1607 1600 1601 1585 1533 1463 1444 1390 1379 1347 1354 1407 1426 1465 1441 1388 1339 1293 1293 1336 1392 1392 1422 1415 1504 1501 1516 1512 1538 1597 1683 1683 1709 1772 1798 1832 1844 1862 1860 1901 1922 1952 1970 1973 1973 1995 2047 2050 2076 2051 2075 2050 2066 2108 2119 2154 2139 2184 2184 2197 2175 2173 2199 2198 2208 2231 2230 2208 2209 2185 2188 2188 2197 2178 2197 2221 2293 2327 2344 2371 2397 2402 2429 2434 2434 2444 2485 2476 2488 2535 2570 2578 2568 2540 2519 2495 2428 2386 2386 2357 2349 2333 2353 2340 2374 2352 2319
770 763 769 769 763 763 759 761 763 764 766 760 755 755 761 761 766 773 766 774 776 772 780 779 780 785 785 786 791 791 793 801 804 801 802 805 805 808 806 810 802 805 806 809 822 826 815 823 811 812 808 807 803 803 795 791 799 798 789 794 794 806 807 812 817 810 810 813 814 816 815 817 824 817 829 849 866 859 879 885 895 904 931 948 955 912 940 878 877 873 912 935 963 951 979 1014 1067 1121 1142 1137 1137 1169 1256 1270 1302 1366 1366 1417 1419 1463 1381 1378 1402 1402 1437 1350 1384 1371 1374 1348 1444 1443 1501 1467 1482 1464 1515 1497 1524 1516 1498 1431 1476 1456 1503 1563 1600 1605 1613 1617 1617 1593 1547 1468 1463 1411 1411 1387 1345 1368 1472 1492 1485 1485 1423 1360 1319 1316 1355 1391 1398 1395 1482 1504 1563 1516 1557 1519 1556 1589 1632 1682 1726 1712 1760 1769 1816 1834 1894 1921 1921 1920 1949 1971 1995 2034 2034 2038 2031 2034 2049 2079 2150 2150 2163 2198 2199 2198 2191 2187 2187 2206 2207 2208 2235 2230 2236 2258 2233 2250 2211 2252 2215 2252 2227 2248 2293 2330 2353 2378 2378 2404 2418 2424 2444 2464 2460 2460 2492 2545 2559 2570 2549 2549 2545 2506 2460 2394 2387 2349 2387 2369 2392 2374 2316 2274
770 771 769 765 760 763 760 762 760 760 767 766 760 756 762 762 766 765 767 774 775 772 778 776 776 782 787 789 789 793 797 791 798 793 799 803 803 806 806 799 802 808 805 805 808 811 810 811 805 805 799 802 797 798 789 791 795 793 787 792 807 806 809 809 812 811 813 818 812 816 813 814 817 824 829 852 852 868 875 877 888 907 932 932 952 973 969 911 891 891 883 894 929 951 961 1014 1000 1059 1100 1085 1131 1165 1255 1268 1291 1312 1375 1450 1472 1483 1496 1498 1492 1452 1437 1392 1392 1379 1435 1459 1544 1523 1547 1547 1564 1544 1539 1527 1528 1515 1463 1439 1404 1456 1498 1563 1525 1505 1558 1572 1588 1569 1495 1504 1464 1452 1420 1382 1358 1428 1428 1475 1502 1460 1423 1365 1390 1349 1384 1389 1451 1457 1532 1532 1602 1595 1607 1566 1593 1589 1625 1630 1655 1712 1709 1737 1737 1757 1793 1834 1879 1906 1938 1936 1968 1966 2003 2018 2031 2031 2031 2090 2117 2154 2154 2172 2147 2164 2139 2163 2183 2209 2206 2206 2213 2223 2233 2258 2264 2250 2289 2273 2294 2286 2267 2255 2255 2279 2310 2341 2392 2403 2416 2384 2409 2409 2438 2457 2492 2525 2525 2568 2572 2566 2571 2529 2544 2463 2461 2420 2427 2401 2407 2407 2363 2296
772 767 768 763 760 758 758 761 764 760 766 766 762 754 763 763 763 767 770 770 771 775 775 776 784 782 785 788 787 790 790 792 792 793 792 795 802 799 804 799 799 800 805 809 808 812 812 803 795 798 794 798 793 793 781 783 796 790 799 799 805 805 807 809 815 811 815 812 816 820 812 820 824 829 837 834 853 862 871 866 874 892 907 924 952 993 968 983 971 901 897 877 905 905 927 941 991 1054 1045 1045 1049 1109 1171 1268 1243 1269 1269 1316 1411 1365 1408 1379 1457 1365 1416 1307 1341 1361 1435 1509 1541 1574 1567 1564 1554 1552 1546 1533 1488 1485 1413 1402 1444 1444 1484 1499 1487 1505 1528 1528 1531 1570 1565 1524 1481 1466 1466 1424 1402 1442 1464 1455 1470 1421 1415 1417 1390 1414 1384 1451 1453 1459 1476 1526 1619 1629 1670 1655 1688 1644 1673 1643 1675 1675 1705 1711 1739 1757 1772 1772 1828 1876 1903 1921 1952 1958 1958 1984 2002 2048 2060 2119 2131 2131 2145 2141 2147 2118 2139 2133 2147 2172 2176 2199 2195 2198 2219 2228 2244 2264 2289 2325 2326 2326 2304 2279 2295 2279 2315 2331 2331 2354 2363 2377 2398 2394 2394 2419 2451 2503 2530 2571 2572 2573 2590 2595 2544 2496 2506 2455 2513 2477 2435 2397 2333 2273
770 767 767 764 764 765 759 763 761 761 762 766 762 758 763 767 767 766 772 772 769 774 779 777 779 787 784 790 787 787 786 792 796 798 796 797 797 798 796 800 798 803 803 804 809 809 807 796 795 787 797 788 791 785 790 786 793 789 796 803 804 808 805 808 808 809 813 812 813 813 817 826 826 825 833 842 842 845 853 872 881 907 907 905 925 930 968 1000 971 1026 959 912 887 902 903 920 914 970 988 1016 1030 1109 1080 1108 1147 1199 1221 1316 1326 1326 1229 1298 1349 1282 1299 1270 1270 1299 1351 1473 1523 1510 1510 1483 1538 1524 1546 1489 1488 1411 1360 1370 1428 1462 1450 1458 1431 1453 1461 1499 1524 1564 1575 1575 1553 1523 1484 1424 1424 1433 1448 1412 1410 1396 1422 1409 1409 1438 1420 1446 1459 1480 1476 1488 1547 1611 1670 1709 1740 1740 1783 1765 1756 1727 1749 1753 1828 1794 1795 1794 1843 1876 1911 1911 1932 1943 1968 1999 2017 2023 2056 2076 2115 2114 2134 2112 2112 2103 2109 2131 2147 2149 2176 2199 2202 2216 2247 2253 2266 2266 2280 2297 2311 2331 2316 2302 2335 2329 2360 2330 2340 2354 2368 2368 2396 2398 2392 2425 2447 2441 2504 2516 2556 2543 2587 2607 2607 2594 2536 2530 2513 2501 2435 2426 2353 2326
771 768 765 763 764 760 761 762 766 766 768 763 763 759 758 762 767 769 772 773 773 775 773 773 782 782 785 784 782 788 792 789 790 793 797 799 792 798 795 798 797 801 804 799 806 798 798 798 793 789 791 787 787 787 785 793 793 800 806 806 808 807 809 812 812 811 811 816 819 820 822 826 831 827 832 834 838 853 861 876 886 882 891 900 914 925 925 971 1002 1038 967 930 930 912 896 905 915 948 970 970 987 1023 1038 1073 1134 1167 1094 1146 1147 1196 1214 1298 1238 1259 1224 1218 1244 1294 1354 1385 1433 1432 1428 1393 1461 1408 1408 1408 1427 1357 1360 1357 1357 1380 1400 1432 1425 1441 1450 1450 1464 1494 1505 1556 1521 1523 1498 1473 1431 1433 1414 1412 1386 1387 1394 1410 1422 1453 1447 1474 1499 1543 1521 1489 1564 1599 1599 1679 1746 1794 1783 1811 1841 1827 1895 1878 1878 1843 1867 1867 1903 1883 1933 1936 1938 1945 1965 1983 2019 2023 2057 2076 2081 2093 2106 2100 2100 2106 2111 2115 2126 2173 2213 2221 2206 2255 2255 2281 2277 2275 2280 2310 2321 2329 2342 2340 2342 2353 2370 2370 2365 2365 2379 2387 2400 2398 2403 2409 2428 2441 2485 2479 2511 2521 2549 2585 2607 2585 2567 2529 2499 2469 2485 2399 2353 2309
759 768 767 767 762 760 763 763 767 764 767 771 766 759 759 772 768 769 772 774 773 778 778 780 774 782 781 780 785 785 785 788 792 792 795 795 792 791 794 798 796 801 795 799 797 795 796 789 787 787 789 782 786 779 788 789 792 799 809 810 808 810 810 808 810 811 808 817 818 818 821 820 829 833 834 834 840 838 854 876 877 882 870 900 918 928 948 982 1008 1005 1058 1032 948 975 933 960 915 913 929 940 987 1004 971 1014 1036 1081 1051 1101 1124 1124 1160 1223 1203 1214 1194 1194 1201 1231 1345 1385 1441 1399 1399 1295 1310 1303 1355 1351 1352 1313 1313 1287 1330 1350 1400 1420 1420 1432 1438 1440 1451 1465 1495 1464 1476 1477 1469 1454 1397 1397 1408 1394 1373 1387 1393 1410 1423 1436 1463 1495 1523 1565 1565 1574 1508 1505 1602 1622 1707 1691 1777 1811 1841 1916 1895 1907 1907 1947 2003 1962 1959 1921 1973 1953 1951 1960 2003 2019 2046 2046 2058 2069 2088 2093 2089 2100 2112 2111 2109 2134 2145 2193 2193 2249 2244 2302 2299 2298 2277 2312 2311 2320 2321 2337 2342 2333 2335 2348 2349 2381 2381 2378 2370 2382 2411 2410 2413 2412 2421 2421 2448 2455 2478 2521 2541 2565 2565 2550 2542 2476 2460 2385 2385 2354 2333 2282
772 766 768 767 768 768 764 768 763 764 769 771 767 757 761 769 769 774 774 778 777 776 781 779 778 779 781 783 784 785 785 789 788 791 790 790 789 788 793 802 794 796 787 794 795 795 791 786 788 787 786 784 784 787 778 795 797 802 807 810 812 804 802 808 810 808 808 812 818 819 820 824 825 827 833 834 840 842 859 859 854 860 875 900 911 911 918 948 972 1005 1063 1070 1070 1078 1019 1012 930 953 911 916 926 951 971 998 1036 1012 1045 1020 1080 1119 1142 1192 1164 1196 1153 1169 1219 1248 1336 1336 1309 1404 1334 1295 1270 1270 1280 1267 1292 1251 1266 1261 1261 1268 1331 1340 1427 1434 1459 1470 1451 1492 1495 1482 1476 1455 1435 1438 1426 1392 1387 1378 1374 1392 1411 1416 1434 1454 1494 1494 1551 1551 1584 1574 1556 1609 1531 1542 1608 1678 1738 1820 1820 1867 1934 1960 1956 2008 2003 2048 2010 1985 1973 1969 1995 1995 2010 2028 2092 2094 2125 2090 2119 2091 2088 2101 2111 2111 2140 2140 2160 2179 2243 2244 2288 2269 2302 2296 2304 2300 2315 2320 2320 2312 2324 2330 2335 2349 2349 2349 2385 2381 2394 2408 2419 2413 2412 2410 2426 2417 2437 2451 2453 2482 2506 2526 2548 2550 2486 2486 2424 2362 2338 2293 2278 2233
768 767 764 767 769 769 762 758 764 762 764 767 764 757 763 763 768 769 774 779 778 778 778 772 778 778 777 779 779 781 786 784 788 786 790 788 787 785 795 792 794 790 793 786 792 795 791 784 778 785 791 791 782 787 788 788 795 808 808 814 805 800 800 800 815 807 810 816 816 818 817 824 825 825 833 837 839 845 852 851 850 864 869 868 887 903 921 937 930 962 1003 1048 1077 1078 1077 1121 1081 1067 991 930 921 925 925 952 964 978 1018 1001 1001 1057 1088 1123 1164 1154 1122 1122 1151 1210 1228 1263 1239 1313 1229 1244 1209 1237 1245 1267 1200 1200 1219 1239 1242 1271 1291 1301 1349 1408 1435 1474 1487 1491 1491 1510 1495 1477 1435 1427 1426 1425 1390 1368 1380 1408 1412 1412 1452 1456 1504 1551 1604 1592 1626 1624 1660 1609 1565 1542 1604 1604 1666 1740 1821 1853 1944 1964 1990 2034 2045 2074 2029 2011 2011 2047 2011 2021 2010 2066 2092 2117 2154 2148 2131 2110 2101 2101 2113 2106 2129 2148 2185 2214 2209 2223 2227 2269 2276 2296 2283 2284 2292 2301 2310 2295 2312 2307 2337 2353 2351 2354 2377 2377 2377 2398 2412 2406 2412 2414 2413 2413 2420 2433 2463 2486 2507 2507 2534 2532 2511 2447 2405 2362 2334 2314 2256 2239
771 774 764 766 769 767 769 765 762 765 763 763 759 757 764 764 770 771 773 773 777 778 776 772 778 782 778 783 776 779 783 782 786 783 782 789 784 781 781 792 793 790 793 791 769 769 775 788 776 786 778 778 780 786 791 795 800 808 807 811 804 798 799 808 807 811 812 818 817 819 817 825 825 827 830 835 839 845 845 844 852 867 879 877 891 891 925 930 935 955 993 1034 1011 1050 1085 1121 1115 1067 1064 1018 997 999 960 976 956 967 951 970 988 1009 1062 1109 1109 1096 1093 1118 1151 1187 1187 1156 1164 1193 1184 1196 1178 1178 1231 1203 1223 1210 1213 1230 1245 1254 1293 1301 1347 1408 1379 1427 1493 1516 1520 1533 1534 1514 1503 1447 1415 1409 1378 1371 1371 1405 1411 1418 1452 1495 1517 1533 1584 1613 1635 1646 1667 1667 1658 1599 1576 1591 1642 1740 1708 1812 1811 1964 2008 2044 2044 2066 2092 2103 2072 2090 2037 2073 2063 2106 2104 2127 2154 2151 2151 2140 2121 2130 2138 2111 2139 2127 2146 2186 2190 2205 2221 2221 2224 2232 2255 2284 2303 2301 2312 2286 2291 2297 2337 2352 2352 2370 2374 2386 2390 2389 2404 2391 2407 2407 2420 2415 2420 2446 2446 2462 2484 2499 2537 2547 2498 2498 2458 2400 2347 2296 2264 2264
778 772 767 767 767 768 769 763 763 762 764 758 762 758 763 763 772 768 771 771 774 774 771 773 776 782 781 783 783 782 781 776 781 782 784 780 783 779 778 790 786 784 789 787 777 778 775 782 782 777 776 778 782 786 795 795 791 795 804 807 803 803 801 804 811 811 811 818 816 817 816 821 825 827 832 830 834 841 845 849 851 856 868 884 891 888 925 928 952 948 970 978 1022 1047 1101 1101 1160 1144 1138 1094 1097 1097 1089 992 1008 967 985 979 979 991 974 1050 1095 1069 1111 1125 1107 1112 1127 1131 1164 1146 1159 1171 1172 1245 1258 1236 1265 1272 1264 1227 1255 1271 1284 1284 1259 1293 1338 1427 1497 1497 1510 1524 1513 1493 1498 1431 1431 1388 1381 1366 1381 1398 1408 1408 1442 1472 1517 1532 1584 1597 1597 1613 1626 1658 1678 1634 1689 1637 1595 1621 1675 1744 1778 1778 1864 1992 2047 2066 2085 2103 2107 2117 2125 2135 2126 2120 2120 2110 2117 2134 2143 2153 2151 2164 2150 2176 2139 2139 2146 2170 2153 2176 2187 2202 2205 2228 2254 2275 2301 2326 2286 2272 2274 2274 2315 2346 2358 2370 2373 2372 2372 2375 2385 2383 2399 2406 2406 2410 2421 2442 2450 2476 2484 2477 2505 2560 2551 2497 2439 2394 2356 2336 2295 2268
773 776 773 766 766 761 766 765 767 763 764 757 761 763 763 764 768 768 765 768 769 770 767 773 775 775 777 778 776 782 778 778 777 780 782 779 781 779 779 778 782 769 787 773 773 777 777 774 778 772 776 785 785 784 795 795 797 806 798 801 805 802 808 805 807 807 812 813 813 817 817 817 825 828 827 828 835 841 841 843 849 856 870 884 896 894 911 930 952 970 970 974 987 1027 1064 1119 1163 1168 1186 1196 1197 1171 1182 1086 1097 1097 1088 1020 1008 991 987 1000 1036 1035 1082 1160 1134 1136 1136 1154 1147 1178 1161 1226 1232 1275 1269 1284 1265 1299 1261 1261 1240 1244 1268 1247 1252 1289 1292 1360 1412 1484 1496 1508 1486 1486 1469 1470 1414 1388 1371 1359 1368 1385 1397 1419 1436 1470 1470 1492 1519 1535 1571 1601 1626 1607 1639 1658 1689 1665 1639 1639 1625 1645 1686 1767 1840 1966 1944 2015 2031 2078 2090 2117 2135 2135 2138 2138 2110 2123 2126 2126 2138 2146 2150 2170 2168 2174 2174 2187 2158 2162 2153 2177 2187 2169 2181 2207 2248 2269 2282 2282 2264 2260 2252 2278 2320 2341 2333 2359 2368 2368 2367 2375 2374 2374 2377 2400 2406 2410 2423 2424 2442 2450 2461 2460 2512 2545 2545 2506 2485 2392 2356 2281 2295 2241
771 771 777 773 765 770 768 763 763 761 765 756 764 765 765 762 763 765 765 771 769 770 772 769 767 772 771 777 776 776 772 778 776 778 776 771 778 776 776 778 783 780 774 782 780 781 785 782 782 778 785 784 787 795 795 792 798 804 798 794 812 812 808 814 809 811 808 811 815 814 819 823 824 828 828 823 833 841 834 841 846 850 860 870 888 898 910 937 937 941 956 976 987 1012 1012 1061 1116 1134 1163 1189 1191 1191 1254 1222 1180 1151 1140 1066 1165 1079 1055 1000 1015 1035 1061 1091 1145 1195 1161 1186 1178 1269 1272 1269 1285 1316 1297 1338 1338 1314 1285 1261 1240 1285 1285 1300 1257 1262 1287 1348 1370 1370 1406 1454 1442 1453 1459 1448 1430 1401 1371 1359 1369 1385 1395 1409 1434 1456 1464 1481 1489 1502 1512 1550 1580 1589 1628 1648 1648 1688 1719 1706 1625 1632 1671 1671 1721 1819 1873 1993 2008 2008 2002 2046 2040 2108 2131 2139 2138 2135 2134 2126 2148 2127 2144 2091 2128 2124 2171 2187 2176 2173 2161 2153 2168 2159 2170 2208 2208 2226 2246 2246 2255 2249 2276 2276 2273 2312 2310 2351 2344 2344 2327 2352 2354 2365 2377 2400 2389 2408 2412 2420 2432 2434 2432 2440 2468 2507 2513 2431 2400 2366 2357 2267 2234 2200
776 776 776 773 783 773 771 774 763 765 768 765 762 772 768 763 765 769 765 767 773 770 772 770 770 767 772 773 774 772 776 776 773 778 775 776 773 773 775 777 773 780 783 782 783 780 776 772 777 783 789 788 792 785 795 796 798 798 800 798 797 807 808 807 807 805 813 811 814 822 825 825 823 826 827 830 833 833 841 834 839 850 859 870 875 893 908 914 926 947 958 980 989 1022 1019 1063 1073 1127 1127 1142 1154 1181 1254 1240 1262 1219 1283 1228 1199 1103 1116 1116 1108 1040 1093 1108 1155 1195 1226 1215 1266 1269 1312 1301 1301 1373 1376 1389 1362 1288 1279 1318 1292 1289 1303 1289 1257 1263 1263 1264 1298 1363 1378 1408 1379 1429 1436 1458 1422 1388 1356 1356 1360 1370 1403 1409 1428 1456 1462 1486 1510 1539 1544 1583 1583 1599 1604 1662 1668 1729 1737 1757 1736 1680 1660 1678 1721 1805 1805 1887 1932 1983 1979 2002 1991 2025 2065 2121 2108 2118 2097 2097 2044 2091 2068 2091 2099 2124 2099 2127 2164 2137 2138 2138 2138 2121 2146 2192 2227 2234 2232 2246 2245 2266 2266 2257 2273 2280 2240 2295 2300 2316 2299 2335 2315 2336 2334 2368 2368 2385 2395 2395 2420 2409 2426 2440 2468 2457 2457 2366 2371 2301 2284 2205 2205 2145
779 779 778 772 772 766 768 768 771 766 767 765 767 772 765 765 763 767 765 766 766 774 771 768 771 766 771 772 774 769 773 773 773 771 779 775 777 773 776 772 777 777 777 780 782 783 782 782 781 787 787 788 790 790 790 800 796 800 804 804 801 803 809 805 800 806 813 813 806 819 820 816 821 825 819 822 830 836 838 834 842 842 855 861 873 893 899 899 912 930 969 1004 1024 1073 1073 1088 1078 1092 1102 1143 1166 1182 1197 1267 1262 1303 1283 1332 1280 1222 1183 1155 1119 1090 1118 1151 1176 1190 1291 1291 1311 1311 1339 1343 1340 1373 1407 1407 1383 1350 1338 1323 1312 1314 1314 1319 1303 1303 1277 1279 1286 1288 1306 1316 1379 1426 1436 1444 1452 1405 1353 1356 1363 1378 1398 1411 1428 1444 1467 1515 1545 1545 1579 1607 1644 1599 1655 1720 1720 1773 1763 1788 1741 1704 1704 1739 1705 1710 1818 1893 1932 1885 1959 1965 1991 2014 2056 2096 2080 2081 2013 2007 1976 2021 1969 2023 2017 2056 2079 2127 2117 2117 2110 2118 2115 2134 2148 2198 2198 2216 2245 2252 2268 2257 2257 2219 2212 2207 2240 2280 2300 2252 2273 2262 2279 2313 2324 2346 2341 2335 2355 2384 2396 2397 2385 2426 2440 2460 2401 2366 2308 2308 2229 2187 2169 2101
777 778 771 772 774 760 759 771 769 768 762 758 758 768 767 765 765 765 765 768 771 770 768 771 771 773 773 768 772 771 771 771 771 778 779 779 777 776 780 781 775 777 780 782 782 783 784 784 788 793 791 787 793 794 799 800 798 798 801 806 805 804 803 805 805 809 810 816 814 817 817 816 817 825 819 823 830 833 838 842 842 847 861 859 874 873 889 895 928 949 989 989 1012 1052 1078 1088 1093 1078 1121 1159 1170 1214 1228 1286 1286 1308 1319 1335 1295 1245 1183 1252 1204 1124 1118 1184 1241 1241 1275 1323 1364 1358 1415 1381 1435 1385 1436 1425 1369 1350 1340 1340 1365 1338 1335 1369 1347 1357 1328 1329 1292 1315 1285 1289 1289 1383 1425 1458 1452 1377 1353 1355 1360 1378 1403 1412 1441 1441 1450 1472 1550 1583 1605 1643 1676 1699 1720 1695 1753 1773 1803 1803 1817 1799 1760 1775 1736 1769 1742 1784 1855 1852 1924 1944 1944 1961 2001 2049 2080 2018 2013 1951 1905 1926 1932 1990 1994 1994 2009 2051 2068 2099 2113 2115 2136 2138 2148 2157 2175 2216 2253 2255 2262 2234 2246 2191 2179 2162 2190 2212 2251 2235 2242 2241 2241 2274 2308 2330 2341 2321 2349 2349 2380 2383 2387 2426 2442 2442 2455 2351 2319 2290 2230 2187 2206 2161
780 773 776 781 774 764 773 773 766 770 758 757 765 768 762 766 769 774 771 763 770 770 767 769 769 773 760 772 769 774 765 770 773 773 773 771 770 774 776 780 780 784 778 781 782 784 784 784 789 785 792 788 796 800 797 798 807 798 801 806 803 807 809 805 804 811 812 814 818 811 810 817 819 822 822 821 828 831 838 838 838 847 852 866 873 877 886 886 897 919 939 980 990 1037 1008 1036 1047 1078 1116 1159 1160 1195 1226 1289 1313 1333 1335 1370 1349 1312 1275 1268 1213 1136 1136 1181 1237 1253 1275 1350 1350 1429 1475 1480 1473 1443 1474 1474 1437 1396 1375 1363 1389 1365 1375 1376 1388 1357 1336 1329 1381 1370 1351 1334 1288 1409 1443 1458 1461 1405 1357 1359 1369 1393 1393 1406 1426 1446 1450 1508 1519 1555 1590 1610 1691 1744 1768 1768 1787 1782 1841 1862 1862 1799 1862 1810 1822 1769 1772 1774 1810 1789 1839 1854 1907 1930 1991 1940 1987 1920 1930 1894 1905 1935 1935 1949 1958 1963 2007 2049 2065 2065 2112 2137 2177 2160 2193 2193 2190 2192 2225 2255 2215 2234 2200 2208 2168 2158 2180 2196 2227 2199 2205 2218 2250 2285 2315 2283 2287 2288 2317 2354 2380 2378 2378 2396 2436 2469 2447 2375 2340 2340 2302 2261 2246 2206
780 778 779 777 775 779 774 771 766 764 764 756 766 774 764 770 772 772 774 770 770 768 768 768 765 768 773 772 768 774 781 773 771 776 771 772 772 776 779 785 783 781 781 783 781 785 786 783 789 786 792 790 799 797 801 798 801 801 802 801 804 810 812 812 810 809 812 814 814 817 817 818 815 824 820 819 827 830 830 837 834 845 855 860 869 874 882 884 898 926 929 945 972 984 985 1012 1029 1029 1046 1103 1166 1197 1233 1289 1298 1321 1365 1370 1377 1347 1347 1362 1277 1255 1194 1192 1218 1211 1261 1314 1396 1457 1475 1507 1507 1524 1513 1475 1452 1412 1433 1403 1415 1399 1415 1412 1394 1394 1383 1383 1403 1370 1382 1334 1338 1306 1421 1431 1438 1368 1368 1363 1373 1382 1407 1409 1431 1440 1451 1476 1519 1563 1590 1648 1648 1726 1782 1789 1803 1815 1834 1834 1839 1888 1890 1897 1863 1863 1864 1823 1792 1789 1813 1854 1828 1830 1873 1882 1926 1898 1898 1928 1935 2001 2000 1967 1944 1965 1970 2012 2040 2083 2112 2148 2146 2171 2147 2185 2160 2197 2174 2199 2162 2169 2163 2175 2151 2151 2161 2182 2187 2199 2199 2209 2209 2254 2277 2259 2267 2292 2292 2342 2346 2345 2373 2399 2436 2463 2472 2419 2388 2334 2302 2280 2293 2280
786 771 776 780 781 776 776 777 774 769 761 760 766 769 769 769 772 770 775 771 769 778 771 773 776 773 773 773 772 771 773 773 777 777 774 775 780 777 782 784 784 786 786 784 785 786 785 791 784 787 792 793 799 798 798 803 799 803 801 802 808 812 814 815 811 810 813 813 820 814 818 818 819 819 821 815 822 835 834 844 844 853 862 860 863 864 874 870 876 900 929 954 972 949 956 975 1009 1021 1113 1104 1146 1184 1240 1264 1310 1335 1362 1362 1361 1386 1381 1362 1284 1276 1256 1266 1237 1241 1243 1328 1328 1404 1437 1432 1498 1549 1513 1541 1499 1482 1433 1450 1428 1428 1504 1489 1433 1414 1410 1420 1479 1445 1451 1402 1342 1305 1374 1374 1379 1389 1359 1368 1371 1374 1379 1416 1429 1445 1465 1503 1503 1563 1594 1627 1661 1738 1782 1777 1804 1822 1813 1800 1789 1789 1816 1873 1855 1879 1865 1874 1896 1857 1847 1822 1824 1830 1855 1855 1869 1897 1918 1941 1989 2017 2017 2029 2000 1993 1991 2011 2011 2034 2088 2131 2146 2135 2147 2110 2136 2131 2152 2181 2157 2160 2160 2146 2117 2139 2162 2177 2168 2179 2175 2184 2222 2254 2253 2253 2240 2279 2317 2328 2337 2363 2363 2392 2429 2475 2462 2400 2400 2333 2307 2263 2293 2298
780 771 778 778 773 768 777 775 766 767 767 761 770 766 760 766 766 769 769 769 769 773 771 768 766 775 776 768 774 771 773 772 775 778 773 779 781 777 776 780 783 786 786 782 783 785 787 790 784 791 791 793 798 800 802 798 798 804 801 801 808 812 815 815 811 813 810 817 814 817 816 819 823 817 824 815 824 832 846 838 848 850 857 846 859 865 865 875 885 905 905 923 942 947 956 985 985 1042 1089 1140 1178 1198 1254 1254 1273 1315 1325 1341 1341 1367 1348 1377 1358 1276 1303 1266 1296 1296 1280 1304 1350 1393 1411 1432 1448 1525 1565 1563 1520 1523 1523 1519 1480 1504 1504 1497 1433 1448 1439 1442 1516 1490 1461 1461 1399 1343 1338 1338 1350 1355 1352 1362 1362 1374 1407 1416 1441 1468 1451 1503 1528 1595 1618 1624 1632 1626 1709 1720 1789 1801 1801 1786 1764 1766 1816 1828 1807 1807 1798 1831 1889 1892 1921 1921 1923 1864 1879 1866 1907 1897 1959 1945 2037 2017 2050 2108 2031 2101 2042 2058 2009 2043 2093 2090 2130 2108 2099 2110 2109 2103 2103 2124 2142 2142 2134 2127 2127 2127 2132 2157 2175 2173 2172 2172 2189 2209 2217 2230 2233 2279 2282 2321 2322 2378 2371 2444 2470 2458 2448 2397 2381 2317 2273 2264 2252 2240
782 781 770 770 770 768 773 774 767 762 760 766 771 762 768 772 766 772 773 772 776 773 772 776 766 776 776 774 775 772 779 781 786 786 776 776 778 780 781 783 781 781 783 782 788 785 787 788 794 786 791 798 796 800 799 803 804 806 802 800 800 801 811 811 811 811 811 813 817 813 815 818 822 822 829 828 827 832 842 838 837 844 847 846 861 865 865 872 882 892 901 927 937 956 969 1027 1023 1064 1094 1148 1148 1174 1208 1245 1273 1293 1266 1293 1320 1338 1353 1363 1374 1374 1396 1379 1380 1332 1315 1304 1332 1336 1415 1432 1488 1533 1533 1579 1607 1612 1555 1551 1515 1593 1568 1560 1508 1476 1439 1480 1480 1533 1497 1438 1378 1349 1366 1356 1387 1351 1358 1348 1364 1364 1399 1419 1464 1468 1471 1503 1504 1543 1600 1592 1610 1596 1596 1645 1708 1712 1785 1754 1758 1759 1764 1770 1783 1794 1798 1821 1821 1862 1897 1949 1980 1928 1966 1936 1950 1961 2015 2031 2067 2067 2155 2137 2159 2101 2090 2058 2104 2062 2036 2074 2115 2109 2143 2173 2145 2148 2098 2100 2130 2114 2122 2102 2109 2138 2132 2172 2173 2179 2194 2181 2185 2199 2202 2202 2224 2234 2280 2308 2342 2342 2413 2433 2478 2458 2395 2333 2333 2280 2281 2206 2198 2188
783 775 771 771 768 767 774 774 771 771 765 760 766 762 765 772 767 764 771 774 775 772 776 776 776 771 769 776 773 774 771 779 780 785 776 775 779 785 787 780 787 789 788 788 793 791 791 787 789 789 789 794 795 800 797 801 801 800 800 802 802 805 806 807 811 808 809 813 817 815 817 816 818 824 827 833 833 828 836 841 838 845 860 860 851 857 864 872 882 882 887 911 939 984 1008 1034 1034 1063 1073 1106 1137 1169 1202 1188 1226 1240 1266 1284 1320 1351 1351 1365 1381 1413 1448 1442 1460 1413 1393 1371 1385 1360 1411 1411 1455 1479 1524 1579 1627 1612 1641 1615 1602 1623 1594 1598 1598 1569 1497 1552 1538 1512 1476 1437 1405 1386 1366 1381 1387 1363 1408 1385 1347 1369 1395 1425 1415 1449 1481 1483 1495 1543 1581 1581 1525 1538 1566 1645 1683 1711 1711 1752 1744 1773 1768 1793 1793 1817 1817 1842 1839 1893 1897 1947 1975 1979 1966 1980 1991 1997 1998 2032 2072 2103 2159 2176 2180 2209 2206 2135 2134 2062 2056 2056 2053 2083 2162 2166 2178 2186 2186 2146 2112 2141 2109 2107 2107 2138 2147 2157 2173 2191 2194 2211 2202 2206 2218 2221 2233 2253 2252 2288 2329 2355 2424 2456 2444 2479 2408 2340 2297 2280 2219 2219 2150 2113
781 790 774 772 779 780 780 776 779 768 760 765 767 763 771 772 771 764 771 771 773 772 776 775 773 773 773 776 780 779 777 782 779 781 788 780 779 782 787 784 786 788 788 785 788 789 789 788 793 794 793 795 795 795 797 802 803 800 801 801 801 804 805 806 811 807 807 812 815 820 818 817 822 827 828 831 833 832 836 839 827 838 852 859 857 857 863 869 868 878 883 912 955 955 980 1004 1031 1063 1098 1109 1139 1166 1175 1182 1212 1242 1242 1267 1306 1326 1344 1362 1381 1389 1432 1461 1460 1451 1466 1466 1459 1424 1401 1402 1445 1466 1469 1516 1554 1597 1639 1615 1640 1640 1662 1626 1632 1584 1554 1595 1550 1501 1477 1459 1433 1399 1399 1394 1389 1401 1408 1391 1347 1355 1367 1391 1417 1435 1460 1460 1448 1492 1498 1516 1517 1529 1561 1601 1677 1695 1743 1752 1792 1792 1787 1797 1813 1834 1849 1869 1878 1918 1936 1999 1979 1981 1981 2005 2002 1986 1998 2038 2072 2059 2116 2163 2185 2216 2221 2164 2187 2156 2124 2091 2077 2120 2127 2165 2164 2189 2184 2146 2145 2184 2157 2144 2146 2152 2143 2163 2163 2202 2213 2225 2210 2224 2224 2235 2233 2236 2252 2297 2337 2337 2356 2400 2439 2469 2407 2333 2327 2302 2233 2173 2112 2113
786 788 788 780 781 778 780 770 775 775 762 759 765 761 769 771 769 769 769 776 775 776 777 775 774 774 779 779 782 785 781 781 784 785 779 783 783 780 786 790 788 792 792 790 791 793 790 792 794 794 799 799 793 797 800 803 801 802 799 801 803 804 803 806 806 811 809 813 815 818 830 825 819 825 834 834 834 832 836 834 827 844 844 853 863 856 865 869 872 872 886 891 913 951 994 1018 1016 1040 1066 1109 1132 1166 1176 1188 1205 1233 1245 1262 1305 1302 1325 1341 1363 1395 1427 1440 1440 1485 1502 1487 1459 1441 1401 1463 1439 1452 1471 1499 1544 1544 1604 1650 1692 1682 1694 1657 1679 1629 1625 1595 1525 1501 1467 1489 1470 1461 1418 1402 1394 1400 1418 1404 1370 1368 1365 1392 1392 1418 1428 1438 1448 1473 1471 1471 1492 1546 1575 1632 1711 1711 1771 1796 1829 1828 1819 1797 1836 1818 1832 1869 1922 1913 1965 1940 1999 2012 2013 1994 1975 1958 1955 1961 2016 2060 2116 2165 2165 2180 2214 2215 2187 2163 2122 2122 2101 2097 2114 2140 2137 2137 2162 2180 2185 2184 2162 2144 2159 2167 2163 2161 2185 2220 2224 2242 2252 2254 2237 2244 2233 2254 2249 2283 2309 2336 2356 2401 2401 2418 2454 2409 2342 2292 2218 2218 2119 2086
792 784 789 784 777 768 776 777 773 768 762 765 765 768 773 770 769 767 770 770 779 781 775 771 777 777 780 781 780 785 785 781 785 783 785 783 780 781 790 790 794 794 791 788 790 792 792 790 792 793 799 799 800 799 798 794 802 803 801 801 800 804 813 804 811 811 810 812 817 818 826 826 826 824 826 827 831 829 837 834 836 851 849 847 860 852 852 861 867 885 893 896 910 929 968 1000 1001 1035 1059 1059 1074 1120 1158 1194 1205 1233 1237 1256 1276 1308 1318 1350 1350 1374 1404 1442 1468 1476 1488 1460 1460 1451 1481 1491 1439 1471 1471 1498 1532 1579 1632 1670 1696 1726 1749 1725 1690 1645 1644 1644 1580 1533 1504 1489 1484 1461 1463 1424 1403 1420 1426 1401 1401 1406 1384 1372 1387 1405 1414 1411 1415 1426 1444 1456 1492 1551 1551 1592 1640 1703 1773 1817 1808 1869 1875 1862 1860 1823 1854 1854 1874 1892 1886 1940 1977 2012 1979 1935 1946 1940 1953 1978 1978 2021 2069 2099 2154 2156 2188 2157 2193 2196 2171 2142 2101 2117 2151 2143 2121 2154 2174 2172 2176 2176 2165 2160 2178 2179 2190 2190 2177 2199 2221 2242 2254 2259 2259 2268 2259 2278 2274 2309 2320 2330 2323 2375 2403 2425 2454 2447 2394 2327 2280 2208 2107 2053
788 783 783 776 778 775 775 778 773 769 755 760 761 765 773 770 765 769 769 775 777 781 782 780 775 778 785 778 780 780 786 784 783 783 788 788 783 780 784 789 797 794 794 791 791 791 792 789 788 791 797 799 800 798 798 800 797 799 804 801 804 810 807 807 814 815 811 813 826 826 828 825 828 824 832 832 825 831 834 837 838 844 844 845 853 857 859 859 874 872 894 902 910 934 968 959 993 1013 1051 1065 1104 1125 1133 1163 1191 1220 1243 1258 1258 1258 1293 1329 1343 1374 1407 1412 1443 1415 1441 1411 1422 1448 1448 1465 1507 1513 1502 1519 1532 1533 1575 1641 1696 1719 1713 1731 1743 1726 1703 1617 1560 1528 1561 1545 1526 1497 1448 1424 1413 1413 1425 1420 1415 1412 1390 1374 1374 1378 1400 1398 1412 1424 1424 1430 1453 1511 1561 1591 1640 1613 1685 1759 1759 1836 1823 1863 1797 1820 1806 1863 1868 1871 1873 1891 1904 1941 1922 1935 1916 1916 1965 1990 2006 2067 2077 2094 2094 2130 2138 2131 2161 2179 2179 2160 2172 2164 2151 2140 2121 2126 2146 2153 2148 2155 2167 2167 2175 2192 2206 2204 2196 2199 2228 2228 2248 2252 2263 2268 2274 2288 2318 2338 2336 2341 2344 2381 2381 2386 2418 2391 2367 2295 2295 2211 2182 2069
786 780 779 776 780 780 777 774 773 766 762 769 769 767 768 767 770 772 772 768 777 779 782 779 775 776 786 785 783 780 789 786 783 786 786 786 786 787 789 784 787 794 791 791 794 793 792 797 796 802 798 799 799 807 798 797 796 798 804 799 802 804 807 808 810 810 814 820 820 825 826 824 821 825 828 825 830 831 834 834 840 853 850 849 848 851 857 863 864 872 886 902 902 913 914 956 993 1008 1051 1050 1090 1116 1146 1169 1188 1188 1177 1224 1215 1232 1271 1316 1316 1338 1389 1412 1415 1415 1392 1392 1388 1437 1441 1457 1495 1476 1505 1519 1515 1516 1573 1617 1617 1627 1679 1697 1743 1753 1703 1712 1650 1610 1588 1572 1513 1513 1474 1442 1428 1417 1414 1412 1426 1434 1413 1393 1377 1378 1391 1410 1383 1407 1418 1432 1456 1453 1501 1532 1561 1614 1682 1721 1721 1722 1761 1751 1797 1766 1786 1786 1834 1831 1862 1895 1888 1888 1903 1912 1926 1948 1981 1990 2024 2039 2106 2101 2123 2147 2135 2139 2130 2151 2162 2126 2159 2114 2139 2125 2117 2140 2146 2137 2137 2139 2148 2169 2198 2194 2197 2197 2207 2223 2254 2250 2265 2263 2261 2252 2275 2288 2367 2338 2369 2352 2378 2378 2373 2339 2385 2335 2331 2265 2241 2141 2122 2025
784 780 775 777 781 778 771 774 768 768 762 763 771 769 771 772 768 772 774 775 780 780 780 784 779 784 786 787 787 783 780 793 791 788 791 791 786 788 792 788 790 793 792 788 794 793 795 797 797 802 801 801 804 807 800 799 799 794 797 801 804 807 807 814 814 812 814 817 817 822 823 821 821 825 828 828 829 832 833 835 844 844 842 850 850 851 862 863 863 872 886 893 908 910 915 934 955 990 1010 1054 1087 1110 1110 1137 1170 1154 1177 1208 1189 1192 1223 1277 1318 1346 1385 1385 1355 1362 1330 1363 1382 1437 1420 1438 1449 1476 1496 1499 1499 1493 1508 1527 1585 1622 1664 1681 1726 1759 1753 1726 1650 1634 1634 1576 1551 1505 1491 1437 1426 1426 1431 1409 1448 1446 1429 1429 1425 1422 1429 1410 1397 1407 1410 1406 1436 1454 1491 1515 1551 1557 1612 1652 1698 1637 1692 1662 1713 1737 1766 1863 1834 1815 1815 1831 1856 1878 1896 1926 1964 1964 1966 1998 2036 2065 2081 2081 2095 2141 2136 2139 2141 2151 2143 2110 2109 2104 2123 2139 2132 2125 2148 2157 2134 2142 2147 2159 2180 2177 2181 2183 2207 2229 2201 2246 2264 2275 2263 2263 2288 2288 2362 2390 2395 2386 2369 2369 2317 2330 2312 2335 2287 2215 2215 2118 2071 2025
778 776 778 780 777 777 773 767 771 767 766 766 769 768 766 772 770 772 775 779 774 787 786 784 782 784 784 792 794 787 787 791 792 785 790 791 786 789 788 788 790 791 790 794 794 794 794 799 798 797 805 805 812 809 806 799 791 798 798 806 803 813 809 813 812 810 821 825 816 826 823 826 826 826 828 823 833 831 833 837 837 843 840 850 858 858 862 863 871 872 889 893 901 912 921 945 973 987 987 999 1033 1063 1103 1108 1132 1121 1132 1161 1189 1204 1223 1282 1282 1315 1292 1332 1309 1328 1308 1311 1321 1362 1376 1420 1420 1420 1441 1473 1484 1493 1502 1527 1548 1602 1638 1682 1731 1745 1745 1753 1758 1699 1635 1564 1539 1566 1524 1486 1447 1439 1431 1414 1438 1444 1453 1425 1431 1446 1449 1439 1418 1426 1420 1409 1437 1437 1444 1446 1517 1557 1593 1604 1604 1598 1612 1657 1698 1814 1814 1885 1901 1895 1834 1844 1856 1865 1848 1892 1947 1933 1934 1982 1947 1987 1982 2031 2069 2106 2063 2081 2112 2146 2122 2110 2081 2081 2091 2122 2132 2131 2172 2174 2174 2157 2146 2150 2165 2157 2157 2162 2174 2188 2201 2223 2264 2244 2256 2253 2281 2294 2346 2391 2374 2408 2356 2305 2285 2287 2265 2265 2208 2247 2174 2118 2054 2054
778 776 780 778 772 774 768 766 777 771 767 765 773 769 769 769 767 771 772 779 775 775 788 788 784 783 785 792 792 784 790 783 783 788 792 789 788 792 788 787 790 787 792 792 796 798 798 796 799 798 806 807 811 807 811 811 809 809 806 806 802 802 810 814 812 811 819 819 819 820 824 826 831 824 828 827 826 833 833 841 837 843 847 847 851 853 864 864 870 874 879 892 894 915 922 922 941 983 994 999 1014 980 1029 1010 1061 1137 1161 1189 1189 1182 1199 1213 1261 1276 1292 1247 1274 1283 1308 1343 1367 1367 1396 1397 1437 1427 1468 1461 1491 1507 1543 1521 1564 1602 1640 1640 1674 1721 1702 1719 1738 1680 1680 1615 1583 1593 1528 1469 1469 1447 1442 1455 1438 1444 1453 1451 1429 1447 1443 1435 1439 1433 1438 1432 1446 1431 1473 1456 1473 1503 1490 1546 1571 1598 1644 1644 1693 1807 1850 1889 1940 1938 1938 1913 1879 1904 1860 1869 1869 1877 1889 1902 1947 1943 1982 1935 1995 2025 2031 2056 2083 2112 2071 2093 2061 2068 2085 2123 2093 2110 2154 2187 2183 2157 2146 2168 2153 2152 2140 2162 2174 2185 2185 2193 2213 2223 2236 2246 2246 2273 2293 2356 2374 2372 2309 2309 2224 2229 2165 2190 2134 2177 2123 2131 2023 1992
775 779 781 773 773 776 777 773 777 760 768 768 766 772 767 772 765 769 770 777 783 773 784 788 784 790 782 788 792 784 778 784 785 790 787 796 791 791 791 790 788 790 789 795 795 796 799 799 807 809 808 808 814 808 819 821 813 810 809 812 806 808 815 814 815 815 812 815 821 822 819 822 827 828 829 833 832 834 834 834 843 840 847 847 851 857 863 869 866 877 877 877 889 900 910 913 941 983 960 968 965 980 993 1010 1058 1061 1118 1144 1166 1152 1181 1160 1193 1191 1223 1224 1245 1284 1284 1365 1398 1423 1396 1438 1476 1476 1514 1492 1534 1548 1545 1545 1557 1571 1579 1627 1648 1682 1661 1687 1680 1706 1678 1615 1634 1627 1582 1513 1469 1457 1453 1488 1489 1481 1459 1438 1431 1463 1463 1436 1434 1455 1438 1447 1474 1474 1508 1490 1500 1483 1490 1490 1508 1590 1648 1669 1732 1807 1768 1829 1842 1944 1970 1943 1904 1935 1931 1913 1887 1925 1892 1951 1912 1946 1922 1931 1995 1986 1986 2017 2048 2046 2048 2062 2056 2056 2054 2069 2092 2114 2155 2155 2162 2171 2175 2168 2166 2152 2162 2145 2168 2174 2182 2191 2207 2202 2222 2219 2243 2262 2285 2357 2357 2331 2346 2256 2224 2175 2175 2106 2078 2095 2050 2054 1976 1976
783 785 777 779 783 784 777 775 775 769 768 768 766 768 768 769 769 773 774 780 779 779 790 789 787 789 791 790 788 789 788 784 788 790 787 793 798 794 792 790 792 794 797 792 797 794 798 802 802 805 809 809 814 819 823 823 831 827 815 812 810 810 809 814 811 813 815 815 819 823 823 822 827 826 826 829 837 828 837 846 842 846 840 848 854 861 863 860 860 867 868 902 905 906 917 911 925 932 972 976 1005 1005 1056 1011 1033 1061 1094 1144 1091 1126 1150 1194 1191 1216 1216 1277 1259 1357 1346 1414 1439 1473 1466 1508 1502 1519 1514 1543 1543 1563 1565 1561 1560 1565 1559 1568 1581 1637 1667 1682 1678 1678 1705 1702 1681 1627 1575 1513 1499 1463 1457 1526 1524 1471 1443 1449 1438 1458 1465 1441 1438 1452 1461 1481 1467 1512 1508 1527 1560 1546 1557 1518 1538 1614 1636 1636 1640 1705 1709 1794 1829 1829 1901 1981 1975 1935 1955 1919 1919 1913 1955 2005 1970 1977 1941 1967 1943 1949 1960 1986 2006 1973 2010 2028 2059 2036 2052 2078 2100 2110 2129 2153 2150 2163 2186 2186 2205 2180 2183 2159 2156 2156 2179 2186 2188 2200 2212 2221 2221 2224 2261 2283 2306 2307 2300 2289 2239 2165 2126 2085 2078 2066 2028 1992 1990 1930
786 785 779 785 785 780 773 773 770 769 769 772 769 768 768 769 769 766 773 774 783 779 782 784 788 786 785 791 785 791 793 793 787 788 786 793 793 793 795 791 793 794 796 794 794 800 799 802 803 805 808 811 811 822 823 828 831 836 826 819 818 805 809 810 815 816 812 814 818 822 829 829 827 827 826 829 830 828 833 838 844 843 841 850 850 856 859 859 862 868 880 880 901 913 917 919 925 947 971 1011 1045 1068 1061 1073 1078 1070 1081 1081 1115 1136 1202 1202 1266 1236 1265 1277 1324 1378 1378 1410 1457 1474 1497 1526 1526 1535 1574 1581 1582 1580 1565 1593 1584 1570 1559 1562 1590 1656 1645 1673 1688 1694 1695 1690 1664 1655 1590 1563 1481 1463 1480 1480 1518 1503 1480 1477 1456 1465 1465 1485 1457 1464 1467 1504 1504 1543 1550 1576 1560 1603 1557 1564 1520 1544 1551 1600 1593 1642 1609 1676 1766 1828 1901 1991 2012 2017 2000 1978 1935 1913 1970 1970 2015 2025 2019 2019 1997 1983 1983 1971 1959 1960 1986 2010 2010 2062 2060 2064 2100 2109 2129 2121 2139 2150 2156 2180 2182 2201 2212 2204 2172 2162 2178 2187 2188 2191 2184 2214 2209 2224 2244 2240 2262 2262 2293 2282 2259 2173 2173 2135 2088 2044 1997 1951 1936 1905
784 784 784 780 788 780 771 771 769 754 756 775 771 766 766 769 768 768 773 771 774 777 781 783 788 786 785 787 787 788 794 791 789 789 793 789 787 792 796 796 798 798 794 794 795 800 799 800 804 805 807 814 819 819 819 824 833 832 829 815 818 810 805 806 815 813 816 816 819 820 818 822 833 823 826 835 830 834 834 838 842 842 845 845 846 853 855 850 854 860 873 876 896 905 905 918 941 939 971 1009 1045 1021 1037 1061 1100 1088 1123 1123 1201 1191 1253 1278 1310 1296 1328 1328 1331 1352 1372 1410 1438 1438 1462 1500 1517 1540 1563 1559 1566 1556 1589 1589 1591 1572 1572 1587 1577 1585 1645 1676 1688 1681 1687 1687 1638 1612 1553 1553 1505 1481 1492 1500 1515 1485 1513 1513 1493 1467 1501 1485 1482 1495 1470 1509 1534 1575 1589 1622 1622 1659 1635 1560 1533 1581 1581 1571 1575 1586 1609 1676 1788 1788 1874 1926 1996 2027 2031 1986 2029 1974 1926 1973 2003 2025 2009 2040 2059 2042 2012 2003 1965 1996 1977 1994 2032 2081 2078 2065 2065 2070 2085 2111 2139 2137 2137 2150 2176 2167 2192 2201 2175 2175 2176 2172 2176 2186 2189 2199 2202 2204 2216 2240 2246 2262 2259 2289 2277 2224 2181 2125 2071 2053 2013 1936 1928 1875
